0.4759699279056273 0.47338770916237327 0.46922779037149787 0.4649982937066116 0.4609461251794442 0.4575700982968576 0.4546351190580526 0.4525071726635602 0.45105428132727876 0.450630216353382 0.4509750901033283 0.4526759710162104 0.45710889152931194 0.4593918689595932 0.4596402011084751 0.4567781555204457 0.4566868767890919 0.4569749770179921 0.4515423524293577 0.4489377471558121 0.4449939682405461 0.4400761137779233 0.43166428431855336 0.4262383605269106 0.4225043228149222 0.41650198270368616 0.4114252331139307 0.4059333070666771 0.40223087419990594 0.39938879827283885 0.39561057633330104 0.3922614559176854 0.38790756877177285 0.3834634452578392 0.38202399104769635 0.38016253849709714 0.37681181920651774 0.37222505491395697 0.3667958511875902 0.3630498328095036 0.358597666575947 0.34713061951011237 0.3366043725791824 0.32900107786111354 0.3232277574740838 0.31912381426518976 0.3164733350836057 0.31484495608398283 0.3146911596807263 0.31250630394829754 0.3083327915292071 0.30555404258670027 0.30315271336327615 0.3009065688579461 0.29930154828976097 0.2990107081641273 0.2992660979805463 0.3000785583173152 0.29824995503175794 0.28774546279720753 0.2779300917555099 0.2697362491363899 0.26310907834638547 0.2570048208815268 0.25191925501464585 0.24777010036481492 0.2438594951169 0.24034761329370768 0.23777230277297587 0.23597002100428316 0.23476415699848796 0.23430717764999553 0.2344795923305603 0.23478594916680867 0.23343847334864792 0.23369158053346345 0.2324051412518178 0.232829085657264 0.23052294191065192 0.22457663045060447 0.22025182419507122 0.21694407865704793 0.21460692321115624 0.21214460071624397 0.2105090276620727 0.208333786735877 0.20586906996162416 0.20431967334007783 0.20306412957453587 0.20328068465992633 0.20102573818724773 0.19576623073140867 0.18668340701520722 0.17787745544116407 0.16931903072210808 0.16137717882441438 0.15388880511014136 0.1467477296037626 0.1401712594938963 0.13430017922536458 0.12880203088516334 0.12336119114489782 0.11897713548176138 0.11458486742090893 0.1097438474524372 0.1053069714483345 0.1002785857814237 0.0951079206571537 0.09042410036782482 0.08564873522586798 0.08093884816124959 0.0766440031832071 0.07287427072505952 0.06956426651597487 0.0663584371731296 0.06353385627507148 0.06096936370562551 0.0586351064752072 0.056568930835578166 0.054746716085073525 0.053133349794543996 0.05151561340844891 0.04971256847870474 0.04774838558357876 0.0459075271676266 0.04413454878271064 0.042469090995175984 0.04087658210218846 0.03917687373622288 0.03768320974175816 0.03641548924053035 0.03538976377234068 0.034556982304926064 0.033937506244715254 0.03353493224990156 0.03339078433581203 0.033488042581086966 0.0338119655653451 0.03436323902460095 0.035086082728530345 0.03601911951497871 0.037265050495873336 0.03864629250171184 0.04006613753302081 0.04155986314753647 0.04326839791202636 0.04519221818238228 0.047328669742460645 0.049818676248363745 0.05281938762580887 0.05633653868292997 0.06011846522071566 0.06450660440815219
0.4822202620872249 0.4784591546217809 0.4739298673643066 0.4689779854265619 0.4646989574891037 0.46161433301284394 0.45864287922645225 0.45708286315791546 0.45662754025838387 0.45695577591152425 0.4579316095524877 0.46016008618121923 0.4653627618906105 0.4663354552899907 0.46731134882018377 0.4662947588494681 0.46572850486978695 0.46568647059514806 0.4625916944583467 0.461821225152755 0.4559274881867574 0.4482727313328678 0.441706711488562 0.43722831276014024 0.4322001544749804 0.4284450815524935 0.4217823175053981 0.4138816616434386 0.40894266187610945 0.4051056054354655 0.4006440981011027 0.39610221937460777 0.39267501839634766 0.38749930082390527 0.3831641196363363 0.3813739838725432 0.3765800143766929 0.36925402424724146 0.3635112671891483 0.3584921051161311 0.3552113869324455 0.3456726029522265 0.33531050472308205 0.32750348347110164 0.3217174115928669 0.317464778882827 0.3147717873630027 0.3127952120871947 0.31004504290804963 0.30762509875715077 0.3048988313232414 0.30253672402512605 0.299090788127822 0.2966192939032608 0.2949672164098258 0.2952108880317172 0.29478832076139094 0.29265483406851356 0.2870888881478674 0.27882302472383946 0.2714242226174206 0.2648069792595951 0.2586096181415951 0.2532647156976016 0.24876189419619493 0.24517620481800173 0.2417347072479353 0.23813465975967363 0.23571590418351462 0.23405871929110736 0.2329160145421312 0.23261125669754473 0.23321602306432326 0.2332987135276682 0.23270819317664845 0.23342407762971565 0.23299119749000927 0.2332850836852706 0.23170754596243853 0.22678634230744024 0.22339793640362907 0.2213549075431597 0.21891877211661973 0.2162134022520907 0.21458237854492357 0.2132775077693622 0.21040196397863603 0.20735512236369477 0.20479070016263806 0.20297853710093666 0.20111862514771617 0.19536230326666462 0.18886106172819583 0.18068126427530912 0.17306572957779853 0.16538098595033304 0.15733117649642697 0.14889291306006397 0.14138535115482925 0.1351135482462318 0.12917338113852878 0.12344296518015484 0.11893640732042929 0.11407884679997873 0.10971891791391689 0.10428376982440433 0.09927717906551525 0.09491595688997301 0.08957388482861907 0.08451442034979192 0.08002095922656742 0.0759690864655883 0.07225897970021657 0.06891195923504383 0.06582473734412767 0.06299068588081823 0.06042598261187063 0.058101341376579005 0.05600082956741079 0.05414274078961236 0.052541596179045566 0.051100577053824016 0.04927346611951256 0.047189405673276 0.04536391964721596 0.043504259807324745 0.041831561864556485 0.04026742331528843 0.03879983050974304 0.03748071362120219 0.0363436421832024 0.035395557660368004 0.03463843657720782 0.034073450174667924 0.03370860397941004 0.033553132963627615 0.0336032523135444 0.03387616606566772 0.03439474531803843 0.035031500184661876 0.03586028945963993 0.03699423657350012 0.03836434020762102 0.03988758903132766 0.04154905144400209 0.04332319680123735 0.04539948955876809 0.04741364484702931 0.049599689014240715 0.052340750610848225 0.05561040762022294 0.05920958807465262 0.0632528413437726
0.4834938766775351 0.4806526165197216 0.47710159634284727 0.47317276263938635 0.4701881248133353 0.46750393639869986 0.4635289976748929 0.4617831362406677 0.46150006511161396 0.4627103255218778 0.4643821620553563 0.4672317307193883 0.4719455046107331 0.4760719976643052 0.47781034443718484 0.4794752716427182 0.4776690511974192 0.47896728624817514 0.47608732195257253 0.47106424622492754 0.4682477646926875 0.4606695946573573 0.45104765802451874 0.44554312199229723 0.4397320372739637 0.43635162854440573 0.42841402273892326 0.42228008923766525 0.41792059552278354 0.41360420157372185 0.408922299014637 0.4019679949227375 0.39644666367704107 0.3908230724919998 0.3848622229204072 0.3815736129266559 0.37526623488003913 0.36768447647436764 0.3619841527784613 0.3553958645443065 0.34964223327386185 0.3446727098876529 0.33364480123302914 0.32569571528595553 0.31995397153702365 0.31547719744789954 0.3122130270299202 0.3094861836566199 0.3070474605694646 0.30488988483677903 0.30180272092898724 0.2994013576407276 0.29620924317292596 0.29303247650524056 0.2908202430856859 0.2902311000125935 0.2913267178715482 0.2879625770049585 0.27927306909877897 0.27201261899579215 0.2658016163502631 0.2606160138058996 0.25459984152817666 0.24973694620087913 0.24557832577486838 0.24228795698671224 0.2391018226260094 0.23589890266126423 0.23374768285160977 0.23213743715241947 0.23115024185179625 0.2317006845752303 0.23186326291801826 0.23264044130525807 0.2329517752550227 0.23299014231654658 0.23313799149944991 0.23208727111727998 0.23140258630277324 0.22948980536052033 0.22784605851315837 0.22611092172524855 0.22554615145345008 0.2214036421782201 0.2207579323830702 0.22240256564409555 0.21721213379062498 0.21248165665335267 0.20893530356741874 0.20538842239982055 0.2020262897629851 0.1968968475143499 0.19031251379573672 0.18371328305649404 0.17900650252067907 0.17099405428841968 0.162659838671577 0.15135978185696 0.14268915082032327 0.13569561606057565 0.12918751558655162 0.12332412703789422 0.11840502932797156 0.1138786637117596 0.10889340989529794 0.10354335860790138 0.09816500870224909 0.09334301435298084 0.0883338459814588 0.08361363158513611 0.07934047968601263 0.07542332166593294 0.07182687051030255 0.06852767037458501 0.06549581274533776 0.06271013457298233 0.06017104990761163 0.0578588926086605 0.05576143477822082 0.05387852485463383 0.052290142950466176 0.0509772684389093 0.04921458629689067 0.04693285796470723 0.045049501962399166 0.04331359549825422 0.04169146815860273 0.04021666960993039 0.038855590113906685 0.03764222844981427 0.03660755051180179 0.03574693888240444 0.03503825117955829 0.03450660272272909 0.03414744975673012 0.03398453429962755 0.03399173541025428 0.03417938102626552 0.0345570459214142 0.035133011901202986 0.03591738971709492 0.03701619618723651 0.03852539389410647 0.04017118338110669 0.041879958384452715 0.043663906563403625 0.0456817985399952 0.04755883806061632 0.0494724745116783 0.052023734561893346 0.05509159423733877 0.05861853024700313 0.0623090460747118
0.4891540499730842 0.4867143422442655 0.48397194663524984 0.4788650261353122 0.4760056683971613 0.471113336939064 0.46834579584163316 0.4676170881377895 0.46712427819779484 0.46852522743752134 0.471447001791475 0.47556432454278463 0.4822064362547953 0.487661744717897 0.49222143697629817 0.4901416218760146 0.4888901340012791 0.4920901200259444 0.48902761831193053 0.48082912821084534 0.47285714039181487 0.46795176066939487 0.45861684004235226 0.452738368542803 0.4486538449340414 0.44111468434050766 0.43593919249378166 0.43198973723859346 0.4290024997984147 0.42640209952139985 0.41988914991566134 0.40897015644049295 0.4011987139974376 0.3947107616223787 0.3870178340686821 0.3810459250757042 0.37485609384976437 0.3672754747052896 0.35901703359193465 0.35237142894067297 0.3458954659003324 0.33893331784554837 0.33077521284746253 0.32377184555615207 0.3181621883141768 0.3135993992596909 0.3101507880316407 0.30745483286956854 0.30585547738760627 0.3026480227246519 0.29960684187255787 0.2976035290201436 0.2945528430606389 0.29045715251416554 0.28701875032813545 0.28555589928372727 0.28610632792949175 0.2816004766795373 0.27298957255592476 0.2662811613888998 0.26061637446816577 0.2553931711359987 0.2505207312625836 0.2463661366481979 0.24269430797186148 0.23966373865471724 0.2370438073586157 0.23378866294950254 0.2316634160286223 0.23007992736894117 0.22930805415951064 0.22986646673687447 0.23126620164821332 0.2319016026558131 0.23105366584879078 0.23167085974212642 0.23274437267830494 0.23325456416104182 0.23347058188057743 0.23443876876746472 0.2345215187739696 0.23146496834273414 0.22852769305032583 0.22647893632717983 0.22688224244262795 0.22732638563305074 0.22179842226686386 0.2194864719553587 0.21615535794535473 0.2106459631997078 0.20617881703078567 0.20147723791668884 0.19403523145108412 0.18793370378394136 0.1801924139811946 0.17157821178212265 0.16296179629250124 0.15315243444128748 0.14410952779341826 0.13639061071470768 0.12951771485187102 0.12323237916262329 0.1180859472359386 0.11322057638936261 0.10821183928604795 0.10281281041610983 0.0970392000082474 0.0920483711510631 0.08742918319552213 0.08301409024308988 0.07889984385316806 0.07510211786864458 0.07161201553916784 0.06838905954221657 0.06541202529919449 0.06267162131772087 0.060178410423576904 0.05789695988830646 0.05581027472118688 0.05387485271857103 0.052119362377854236 0.050505868953612996 0.04879061419481133 0.04693594138407645 0.045175605938645995 0.04351265579904678 0.04196546871515526 0.04053874588961412 0.039268877883963334 0.03811657743968483 0.03717023330059457 0.03638096523771691 0.03572759400545372 0.03520379600773748 0.034866723085865345 0.03473264045115417 0.03467972403878594 0.03474202965627903 0.03501181466219546 0.03549903135777782 0.03619246293111502 0.037185624420830794 0.03847048697587513 0.04010090459745991 0.04213138793582969 0.04357349459063135 0.045683135366398564 0.04755168929617007 0.04936679286635501 0.05186130131105165 0.05475392895144969 0.05810880200397864 0.06163004817698726
0.4983348476549827 0.4963909165466873 0.493673706054206 0.4852023008183252 0.47937851206551535 0.4752371240243636 0.4731744302168763 0.47343521035361813 0.47337618517718766 0.47532867932261136 0.4784525443155964 0.4839500342368166 0.4901214809913847 0.49991823622486353 0.5052412350498988 0.5043343208252272 0.5021409674271546 0.5043107214876509 0.49879814973953474 0.4872348947502738 0.47808355699122873 0.4705323886507629 0.463186499836746 0.4592364277598736 0.4558062880752587 0.4477817493136199 0.4429186072361813 0.4402514221267559 0.4410919269910162 0.43605442762365676 0.42628924232740406 0.41687421620562526 0.4070477884455301 0.3981142400762629 0.38918898955966774 0.3811983118397234 0.3731260169091858 0.36494633105235813 0.3568904430358101 0.3494679034884141 0.3423795350492577 0.3351728869094098 0.3282243089138742 0.3218040950658208 0.3162863977382166 0.31188534414614166 0.3084956856063774 0.3061530885019425 0.3048268208531425 0.3004314579744017 0.2972498606310664 0.2944230206121459 0.29261832072077665 0.2879190428617969 0.28385331477850057 0.28109482286766 0.27884667006081343 0.2731628588444129 0.26684579952254533 0.26112866416593555 0.2561740067836704 0.2510781111133994 0.24677723140292965 0.24335170568447437 0.24032682280774278 0.23746987598500388 0.23477565686747012 0.23157187560432277 0.22946598598478019 0.22789638022916667 0.22741895043606272 0.2280545250063465 0.2283734345127731 0.22869412304799772 0.22990686846433844 0.23159895071146083 0.2349537131980903 0.23853666084416136 0.23741602997954486 0.23626409156301528 0.23543127859560303 0.23655479290988457 0.2339063631756551 0.23249858479128616 0.23359199856452112 0.22963989877868607 0.22727026610555448 0.22411788926229576 0.22011754293458125 0.21971706816086323 0.2123280556550228 0.20875170536173746 0.19981867675687498 0.19280939751408274 0.18432347723476136 0.17492265443120547 0.16661274984331204 0.15585964449582498 0.1457827825674593 0.1372668825034759 0.12981424350327553 0.12315422421590093 0.1173831308916468 0.11175273032326455 0.10640265773752011 0.10117703703242528 0.09606645063578265 0.09135751579313352 0.08692035658511034 0.08267627098753563 0.07868768374741793 0.07501749536122326 0.07160406782419997 0.06845759845013308 0.06553593979720183 0.06286456600502292 0.06045916633379122 0.0581623037015212 0.056036653172146345 0.05410526414752317 0.052358414752840685 0.050692051931832634 0.04900649444937734 0.04729275281639973 0.04564066918130023 0.044084477008687444 0.04258784225190984 0.041204261693749224 0.03995075190545268 0.038864865210592965 0.0379876434530684 0.03726547627196278 0.03666767262420981 0.03617717074517743 0.03585461330914419 0.03569874826368023 0.03559300900351054 0.03552639699639789 0.03572308315349499 0.03607194546307199 0.03666740727806565 0.037537463524577645 0.03867953789439413 0.04016099841678485 0.041744318051527216 0.04331916828430251 0.04516391573565146 0.047147975299303306 0.04922387636156276 0.05173327299041087 0.0544557014280638 0.05745724068183814 0.06089139187417227
0.5120400392095398 0.5091603367431765 0.5016057838303594 0.48972625650880247 0.48405673292788504 0.48040709606784043 0.4781021072569634 0.4777179140751343 0.478846537192918 0.4806944167500678 0.48451567520545163 0.49152155303346967 0.4982397359352922 0.5079128588017215 0.515637411731006 0.5193590274932407 0.5191518527240393 0.5148024895225068 0.5030857182484296 0.4940419074292631 0.48378043450992814 0.47460863948791293 0.46789654543069853 0.46295316694784777 0.46052203992550017 0.4551410774474238 0.44967069680683136 0.4464817489742533 0.44695636212402423 0.4403447247092665 0.43599730847329554 0.42780701572197477 0.4156109880403221 0.4040869007251518 0.39300398407663467 0.3833654350415361 0.37390800118757817 0.36452344567070977 0.356078450690631 0.348086156980388 0.3405590188091962 0.3331949658885811 0.32627028999096047 0.31999563138072495 0.31456342871879484 0.3102698603000296 0.30742052062179925 0.3049075246973962 0.30240751608489286 0.2991647067680334 0.29651491274352126 0.2910685000090232 0.2869452214877924 0.2835627463355792 0.2817264386362819 0.2775820045715798 0.27445398437143315 0.26728548315610706 0.2615026448383584 0.2563096448061359 0.2515035555754554 0.24719896218094037 0.24334131889382274 0.24021641134764404 0.23791456082220774 0.23509377428182898 0.23299370029080474 0.22930050494390236 0.22696266922121905 0.22561827652825187 0.2253478357859741 0.22574248132455205 0.2260513333515832 0.22670567330008728 0.22830390062542774 0.2320493636800878 0.23844109082405074 0.24158533134797192 0.241290313963566 0.2378477350725621 0.23778169840051377 0.2364391457863281 0.23504393970814552 0.23564416489762544 0.23695517779998473 0.2355288913214246 0.23230335805897145 0.22721027863891075 0.22284228019109503 0.22406763061992854 0.21655498500858078 0.21264771253015505 0.2065356952091352 0.19542662961423282 0.19070157950581565 0.1810389953258899 0.1682245491559023 0.15765523690464664 0.1479711491356787 0.1386248022368854 0.13030393150385317 0.1230798264813419 0.11655176481142758 0.11072220542969086 0.10534144894650416 0.10032371599074572 0.09545805830723049 0.0908870344405074 0.08659970891472583 0.08250896391312876 0.07868484297914871 0.07513220994648119 0.07179613912898278 0.06874262633458193 0.06587929480503102 0.06326358640516978 0.060869024505205975 0.058621279106675465 0.056548106929560915 0.05465628261046303 0.05294593358943675 0.05134320827076426 0.04965268455056505 0.0480504058933537 0.04653274887244932 0.044975811046438476 0.043565838897725126 0.04218795348750129 0.040923986351647124 0.039877856291600434 0.039037351227503014 0.03833949704698317 0.03783319054506928 0.037415368630056074 0.03710956253799209 0.03687606087826947 0.03673323675740703 0.03652179782574336 0.03658052611293362 0.036839068108221754 0.03733789456109308 0.03810140585386357 0.03910960270007293 0.040360159592974836 0.04178411414415612 0.0433759371033681 0.045156310768306195 0.047038846198483836 0.049132161726498855 0.0515723676838503 0.05417555165959493 0.05702869288914685 0.06019879935787947
0.5173675747128281 0.5112726846184367 0.4995273833543601 0.49248407057714566 0.4891555562038447 0.486551383344892 0.4839092148357317 0.48313763586305486 0.48433684381145387 0.48694877083546156 0.49065720866036133 0.49723599261585627 0.5071524770426324 0.5166965287947471 0.5204828901948283 0.5280434326967404 0.5275572676000087 0.5208962572704043 0.5073876275899669 0.49806719492933915 0.4883965603179352 0.4812418083220715 0.47478350147004433 0.4681396367378475 0.46338357236268923 0.45995804260918083 0.45786258043916894 0.4530013761755117 0.4499530749556427 0.4479546392875978 0.4419456632921358 0.43070085286345194 0.4220992526249664 0.410427996006258 0.3987687052603099 0.3876617974640839 0.3763251424128438 0.3653240492635863 0.35614194864446447 0.34778369826659106 0.33948208182652384 0.33182040266726687 0.32480191306428163 0.3184616446660615 0.31291889055618005 0.30830904777934615 0.3045941642965391 0.3019095410818909 0.30114644047067046 0.29857006067400843 0.29381712887380673 0.2875211954955091 0.2829550054228858 0.2791764195380286 0.27568710168308436 0.27163190873003845 0.2671509711057565 0.26186242761167905 0.25676886806431864 0.2519768650737829 0.247534256906673 0.24353328509739403 0.2400201458630662 0.23706196220729062 0.23501889629386227 0.23263401881379356 0.23044276933765698 0.226723687701185 0.22441699835783374 0.22336207359144322 0.22294636899428005 0.22312452908304986 0.2237852977937615 0.22455918443540243 0.22685334691654507 0.23183698224188637 0.2368132836833529 0.2409859928496368 0.24099070382830687 0.24031749016272957 0.23793331920929742 0.23592613147100125 0.23562624322563622 0.23657182958684178 0.23843000329117126 0.23514726847582682 0.23031011085660158 0.22631663260667387 0.2240744552736099 0.221873755948937 0.221463870265347 0.2159840821510547 0.20528013473971737 0.1968141645776599 0.19085851365689804 0.18262531743074306 0.16973037178002906 0.15841783297307993 0.1490454695129114 0.14050350497517464 0.13036537642959703 0.12255558381494192 0.11599542269266146 0.11012914080517865 0.10481531755983325 0.09987722681969793 0.09521762534249564 0.09073483478947789 0.08656861095138124 0.08260528998552769 0.07886570383643847 0.0754049398986425 0.07216981970577456 0.06918715161627112 0.06643616225943291 0.06391120081488838 0.06156441104656975 0.059375543448088326 0.05735975015761404 0.05551891547058544 0.05386447646262071 0.052298762154627115 0.050659736673094646 0.04920940029995907 0.04772813973564536 0.04623358216942665 0.04496848836697916 0.04345401533569253 0.04217652596063258 0.0411494613715223 0.04033056461842735 0.03970480295182342 0.03931148748216984 0.03905113987849767 0.038795534192857244 0.03849879627368482 0.038108215234895874 0.03772681734712628 0.037680107631598264 0.03782614576878813 0.038210819106628484 0.03886885089806998 0.039755268239272265 0.040880475561284935 0.04223470519879326 0.043780216772303496 0.04552472715616959 0.04728037243444559 0.049253043713726706 0.0515022193024623 0.053997526525172306 0.05676480432876233 0.05983635947637286
0.5140500769429387 0.5036890965864728 0.49728134067480745 0.4935244736469666 0.4909239088343554 0.4904505623714156 0.48930101370276285 0.4884370864628547 0.4904721518213604 0.4930495296314975 0.4973723271107952 0.5046413852746895 0.5151804246353456 0.5197336352376563 0.5288657263058811 0.5339641451351448 0.526461435881502 0.522266165102225 0.5113431826347437 0.5040848534246388 0.4944363373993902 0.4884742117060087 0.48540624629914836 0.4754262354677719 0.4698684313285551 0.4677537557646989 0.4682259867307365 0.4615655775408813 0.4573980154190603 0.4529452638018054 0.4485723426064265 0.4352284009689682 0.4272056170243495 0.42088225521092754 0.4049673660103334 0.38953639550404834 0.37709230944218314 0.36620307515933237 0.35641207020568866 0.34779831053436944 0.3390241956056482 0.331115968230695 0.32371220356278074 0.3171623481298604 0.3114257157419456 0.3064492681969926 0.3021718747273166 0.29867200487972895 0.2958105952587223 0.29247465005512663 0.28830070090786797 0.2840125929715684 0.2802113052852875 0.27589491394844534 0.2716921782673568 0.26722609379481294 0.26213296610031034 0.25732964543473813 0.2526819239936064 0.24822988402744145 0.24406472738073165 0.24023593135874408 0.23677941292925242 0.2337485811458657 0.23113381671859753 0.22872869057229395 0.2264676289772367 0.22384742191620874 0.22175019587790168 0.22064963065039891 0.22060024508147966 0.22060001448492644 0.22066723123077903 0.22172972925742038 0.224738048072942 0.23016273517613228 0.23549177814050573 0.23791044388864957 0.23937260213135056 0.23849906009166877 0.23443423550780346 0.23384490854525897 0.23457804238174879 0.23438199054023084 0.23412619120803674 0.23487824422477463 0.23136397082744253 0.22882891094181695 0.22574633782071724 0.22322226574712112 0.2189473169231257 0.21171625288545 0.2057315363945763 0.19871134908396237 0.19026194140431787 0.1819115673657688 0.17234383378454132 0.15786406104357914 0.14673544620985687 0.13800083213272424 0.12956316946146257 0.12215344905775338 0.11556970186302729 0.1097261830146413 0.1044412527390178 0.09958646692048201 0.09509208401351635 0.0907730037454089 0.08672608823950323 0.08287134619225016 0.07922331056055562 0.07589976231306264 0.07276039717313275 0.0698780063555596 0.06721543495140495 0.06478144147425798 0.06254376191312183 0.060418711752852836 0.05846941359030393 0.05670050462848403 0.0550991309778631 0.05353304451087185 0.05198761195918281 0.050531621403129924 0.0490899178396254 0.04780471052562114 0.04646388938266443 0.0449796362571447 0.043698175605068175 0.04266201626676756 0.041869462212201045 0.04132544587671258 0.04118677571137512 0.04098602477913795 0.04050323332739046 0.040140779830385755 0.03966293821804188 0.03908896160004836 0.038990624350401765 0.038956790261180034 0.03927464208453271 0.03988456566109196 0.04064687608763208 0.041659707817278645 0.04294300485152302 0.044517108675986745 0.046260532277187356 0.04782425579282365 0.04961134067452557 0.05171304779332568 0.0540918957815531 0.056743360781056074 0.05967510600052326
0.5040261241365884 0.49847131441931336 0.49588480062350143 0.49434615553836964 0.49256768052302496 0.491396283185439 0.49280761374389914 0.49377740059053454 0.49668578962832005 0.501222347663795 0.5056011530898179 0.5104098961908782 0.5167530250569659 0.5239603606153412 0.5335996607853736 0.5360466193425006 0.5285453630663324 0.5275968355915367 0.5173921918060437 0.5105099669608115 0.5009736881986772 0.49609280758011914 0.4902993704110962 0.4820553538781354 0.4786220443819131 0.4765223849970995 0.47227018399237436 0.4640524352681898 0.4570660242360367 0.4534494354774718 0.4496151615421641 0.4404341673851787 0.436092852670074 0.4221204422589865 0.40975435386318304 0.3919405303043979 0.37862617727799114 0.3672378443752199 0.3574703211398364 0.34766573630230413 0.3387395942665994 0.33035239809242684 0.32276992203943944 0.3161061026795581 0.3101495352413759 0.3048934483267799 0.3002167235822946 0.29606977350440705 0.29218914869746554 0.28839846422577947 0.2846225292881266 0.2810802672709462 0.2777818571731547 0.2736559822240305 0.2690278460425011 0.2634326099671205 0.25841816810060747 0.2537505768688262 0.24929821654304612 0.24505562707575945 0.24105957754453897 0.23735102402028835 0.23393361863978693 0.23083721178802563 0.2280417568258393 0.2255827951147128 0.22327065414664937 0.2210198822260638 0.21914966360005755 0.21795433790618954 0.21740595419718214 0.21742779453415836 0.21823480345244853 0.2188817353014053 0.22133957161015 0.22611734564202746 0.23018649335818991 0.2340206768914634 0.23588793306898703 0.23387703899929593 0.2316838693745587 0.2345600932817583 0.23487239225841214 0.23630610239065228 0.23414711908253005 0.23169337639466786 0.233630269904356 0.23112095132003255 0.2256938700195121 0.22266431564772077 0.21770452603701193 0.2108510340796421 0.20475166307107612 0.19706815449589624 0.19145194750311056 0.17863617885042038 0.16579517467705493 0.15443122703952872 0.14446272222013673 0.13619126795317743 0.12877210085968985 0.1219259489101592 0.11524224846346155 0.10945566888757836 0.1042699334632192 0.09953161751321235 0.09510587192233833 0.09091910093115324 0.08702276847992399 0.08324348419110554 0.07976221999581264 0.07655761873216192 0.07357224850713426 0.07080886379787968 0.06824876139341567 0.06589464862125295 0.06374593517786532 0.0617416790791134 0.05990119254031215 0.05820681361213724 0.05665587554196569 0.05516075843138306 0.05374858634752406 0.05222356755739611 0.05087166414225832 0.04958440328285399 0.048256711300108765 0.046834959035668415 0.04550560021584449 0.044416825137873095 0.04358193641222093 0.0429988479132223 0.042741032760855766 0.04282617876543123 0.04251371838806404 0.04177308869540819 0.04098024331069209 0.04042832925143082 0.04028502260871789 0.04020546261146804 0.040455075489519196 0.041049713608091405 0.04174726161755625 0.04263005071453049 0.04385919185566209 0.04552070013542793 0.04707515883997171 0.048590267355333235 0.050172470898111055 0.052149850345935826 0.05442929560716493 0.05696310564901249 0.05974982615390438
0.4977131723206733 0.4948358396132734 0.49329686845703824 0.49349032079344907 0.4921596070007837 0.4924975817631837 0.49486641694047856 0.498553239345536 0.5052592919721102 0.5121540671323096 0.5136321026459689 0.5174486336345069 0.5237487120035326 0.5278046744221645 0.5308063293648563 0.5354892727733842 0.5301351297387181 0.529040889746506 0.5251365038293846 0.5143803559843277 0.5071005266912344 0.5045507599455629 0.49669279103995356 0.48790498064358984 0.48206542443441075 0.47830417012934123 0.4714945203081419 0.46434252262872644 0.4586388035397378 0.4550321163954341 0.45089879085395485 0.4432929115290418 0.436240230216732 0.42301352894975525 0.4090176370944105 0.3931214985508008 0.379616325442083 0.36832485333952525 0.3588659641311465 0.3479716741843739 0.33869932589050405 0.32973130644156046 0.3220056048189266 0.3152442486033067 0.30912469257791925 0.3036284290128995 0.2986387880185313 0.2941527265558255 0.28999561940975693 0.28594437368140174 0.28215182034886466 0.27878350939283 0.2745915423849241 0.26980634792896113 0.26501802860232687 0.26006751604327305 0.2553445460044595 0.25080684490284966 0.24648075226060334 0.24239069390349874 0.23853857033124157 0.23493057421303115 0.23154440894517608 0.2284030444266585 0.22555043428820548 0.22296997972970636 0.22066514689279776 0.21868564471165042 0.2167708796504712 0.2154435850177071 0.21474887395259976 0.21455468968392727 0.2150819911112292 0.21540770320257896 0.2169449768250589 0.21947329255170417 0.22256054322821042 0.22710129635964835 0.2274319127000876 0.2264690987259849 0.22795483667083352 0.22914900091298598 0.23159068682282535 0.23664568216351295 0.23474519479086633 0.22971676835932764 0.22566276022859938 0.22317777743327458 0.22147146087719385 0.2215999437229049 0.21890118869155173 0.21373791493986452 0.20382882053805143 0.19750620846899108 0.18881922146270566 0.1728902255737306 0.16113654307705327 0.15155166897675493 0.14231769473167288 0.13443408687470657 0.12740277764105404 0.12093657331019454 0.11494592660744087 0.1093801769426314 0.1042565891679226 0.09959601519483081 0.09527456247957751 0.09122080023248708 0.08741088762755962 0.08384753309341161 0.08053941730520742 0.07746872143396083 0.07462504723979746 0.07197714750486085 0.06953683434324581 0.06725818377707422 0.06518870037144545 0.06333730115308996 0.061594088616815555 0.06011829522784579 0.058664533805819714 0.05719066191743183 0.05577085444182496 0.054354208647972496 0.053099855056401045 0.05179238033783166 0.050478814454795705 0.049039359486705576 0.04763184202526524 0.046483659392118834 0.04559978885014258 0.04483443730085854 0.04452855375466204 0.044725845753861314 0.044484224940755004 0.04364397052777893 0.04248687855235173 0.041903024798516895 0.041558296607735 0.041527467767364476 0.04179057176678682 0.042199899175687276 0.04283734832854023 0.04368701907754244 0.04478980664594086 0.04613224732347851 0.047598337763202825 0.0491549789630414 0.05083520642971106 0.05277064566116041 0.05496171139322322 0.05739146244353933 0.06006395318451556
0.49395386220058146 0.49290447041502433 0.4919580944184358 0.49146547630521137 0.4920827304762429 0.49402185500565426 0.4980333541211603 0.5033843772456971 0.5140432708841834 0.5173913159490383 0.5204155954092012 0.5279896780516907 0.5283899771815452 0.5298444700811726 0.5315143281335212 0.5326716910023893 0.5329284321621378 0.5301874828931332 0.5294072583523495 0.5226871520366043 0.5156285014101125 0.5089034532443858 0.5044316823292351 0.49329895346995906 0.4821571408919068 0.47634668688377635 0.47479340574599016 0.4692810384801931 0.45993359488183205 0.4578015429569577 0.45131815224036925 0.4380922439655703 0.42978324193777606 0.4213722900439762 0.409950810810828 0.39401025710161286 0.3788356778695905 0.3682184949235265 0.358772380359994 0.34790073218061296 0.33764194907136036 0.32900971785566474 0.32143871072794655 0.31463544071571575 0.30840923152705657 0.30269447042595005 0.2974690095331533 0.29267303085156854 0.2883231583057959 0.2841703774854468 0.2801236420720692 0.27672118333194395 0.2718948436156533 0.2670965997530884 0.26224440777645625 0.2574775758590681 0.2528981066042887 0.248393857029484 0.24416347223449397 0.24020662250480657 0.23645401984312914 0.23292473214652362 0.22954311220393686 0.22635238247903988 0.2234790129779694 0.2208400961516122 0.21850371755101794 0.216445535229417 0.21461611944053238 0.213191057596991 0.21223858813877425 0.2117636474646023 0.211791408792286 0.21215720539344773 0.21308583397427805 0.21472376476165292 0.21634214319208608 0.21840856441166995 0.21975354121609045 0.21993368860293028 0.2211561631556312 0.2232095109013694 0.22933231905220602 0.23098845761753406 0.22678750732225747 0.22309669752497968 0.21919704434848375 0.21784853201770943 0.21838024105640924 0.2204548940205116 0.21604961019012517 0.20984484960913233 0.20121942465477116 0.18974510758703766 0.17780164927018877 0.16645714594150968 0.15680953942978573 0.14847339717535202 0.14032188743047033 0.13291619997590992 0.1263159208963331 0.12029102583465151 0.11495414685139486 0.10957448163430762 0.10449764126969954 0.0998605591042729 0.09563500238598001 0.09172222543475914 0.08809070350732101 0.08471302883321598 0.08157019742251023 0.07864845456281012 0.07593596494166441 0.07341477400851454 0.07108730881252957 0.06889805070742687 0.06690831803406835 0.06510192813427335 0.06355472857562151 0.062348703300465526 0.06093935973111413 0.05984396926492067 0.05828036920305447 0.05694837528436329 0.05600502906044823 0.054463622719361636 0.05314858454752162 0.05164293193192748 0.050164673917390386 0.04890125717352539 0.04779096407086543 0.046760609386650574 0.046257888050752614 0.04633642984404713 0.045938514115856026 0.04513368563427648 0.0439787079757264 0.04332784541952757 0.043045563117781925 0.04301268748336379 0.04320926680532514 0.043594321394965684 0.04416385213309544 0.044946345000493534 0.045920628626516524 0.04709361997726395 0.04847448130354394 0.050023509715337484 0.051702411594341406 0.05360707343782577 0.05572073289757724 0.05804914320303488 0.060607712602392554
0.49191438806943144 0.4917911017455878 0.49147057522093923 0.49118893817335396 0.492589257524154 0.4962130367326188 0.5023624855863313 0.5066577730993872 0.516035533065921 0.5250038145025441 0.5254249828884759 0.5308232269797598 0.534780011591332 0.539580579936072 0.5369894710717982 0.5363204201368422 0.5360846251659984 0.5331752473156138 0.5376845562891047 0.5353613075619498 0.5308561056525267 0.5177149919112933 0.5026345608039087 0.4928013963085957 0.48321735330101695 0.47538452484092775 0.4721587870566124 0.46819910245764657 0.45950708447980526 0.454755048941197 0.4431170163006333 0.433938361800122 0.4292236759442275 0.41897616984954517 0.40892006963773303 0.3929102635108356 0.3768637352676574 0.3652437397670027 0.35526946071119275 0.34565968665190105 0.3365922168792515 0.3284238456851707 0.32105072154159786 0.31436190059538266 0.30803185980644865 0.3021144087113748 0.29665403723005196 0.29159635600875 0.2870035762364204 0.28278475202010905 0.27831731882026217 0.274229084701557 0.27005840916164103 0.26551217002241206 0.2604959558712394 0.25551078118679293 0.250865145519489 0.24642932948491902 0.24227985428325494 0.23843510515893665 0.23474455852311477 0.23125507445969692 0.2278256024714636 0.22464384502748863 0.22176983015923682 0.2191291813235282 0.21677318975521567 0.21466872219169603 0.21281165765796065 0.2112613918582253 0.2100877998729873 0.20937538322333457 0.20926796122876365 0.20955522599310059 0.2097751406513371 0.21052108855420026 0.21172473892382673 0.21292535225081496 0.21442406568164954 0.21499005780085886 0.21600888299423754 0.21730988487344596 0.2184820043854383 0.21846738595408344 0.21694188946526385 0.21485792306006013 0.21293811360699452 0.2135359716005472 0.21307294566749602 0.21472584796708177 0.21004178392912048 0.198119186905442 0.18840391455573757 0.17898159748702075 0.16970115975502145 0.16089457838594423 0.1529788477312115 0.1460257892465127 0.1388073894693531 0.13185934482841766 0.12556678080100114 0.11986088420223309 0.11502685488088754 0.10999395218432484 0.10501225866542663 0.10033753808684485 0.09622929888780123 0.09250336234792586 0.08905445966898122 0.08585389800753011 0.08287255654433406 0.08009984690449846 0.07752708137246138 0.07515879167066288 0.07296700225740557 0.07083719883638996 0.06891825578664146 0.06723063708291442 0.06572474953787444 0.06444543509104984 0.0634072839511455 0.06246325452355967 0.061043357732854235 0.059889907179298124 0.05868745259122321 0.05704265052946699 0.055801180475185966 0.05435895801721059 0.05322133677196961 0.05132341639773482 0.05001573095287158 0.04876774531779502 0.04810672800957054 0.047429566009478084 0.04677210050532146 0.0461190078925162 0.045464732258764705 0.044981046271623554 0.044740867839307155 0.04475076252499784 0.04491023036167499 0.045270878695532014 0.04574340738866394 0.04642155392724912 0.047274289157203636 0.048352198260291905 0.04964429357428381 0.05113492203509335 0.05278583829763013 0.05466071639431063 0.05670498564111705 0.0589317282292726 0.06139629915575332
0.49137819108836944 0.491249957044446 0.490518255653627 0.4911240621611589 0.49357045214114376 0.49865021494513617 0.5043741705387601 0.5097574752940497 0.5181167040838535 0.5270164123733156 0.5307048947308907 0.5395245707657556 0.5463591894453662 0.5462171358750376 0.5424573625461967 0.541812938926163 0.5428595347747164 0.5355287070002919 0.5340562976617396 0.5343828543806114 0.5339809669682721 0.5218774037750116 0.50210580474564 0.49163118904765446 0.4849088542751332 0.4748454479744312 0.4665637274442356 0.46190621061233567 0.45685189467663145 0.44996346100427215 0.4381737013062937 0.43014177245870294 0.419436872071096 0.40937960481815416 0.39853716414343066 0.38591425503538157 0.373677449293167 0.36283295667517934 0.35319751715608755 0.3442808496428681 0.3359367347885138 0.3281444910270947 0.3209520420070186 0.31428059721412027 0.307916917140868 0.3018609782496512 0.2962045399675881 0.2909120936695641 0.28604206170428287 0.2814529836296622 0.27703637325552694 0.2729206623531579 0.2690834104223142 0.2640300744473124 0.2592805416358659 0.2540130504000344 0.24928831492057682 0.24486772595238698 0.24075297457706574 0.23699326491769163 0.23339268863938928 0.22984055050528743 0.22641209892080225 0.2232661587803537 0.22038063909353875 0.2177798357909626 0.21547238623408935 0.2133977414993322 0.21142571628700507 0.209719858711913 0.20832158516956684 0.2073380683120766 0.20683646888746884 0.20676827400503728 0.20698893732503193 0.20718045344200578 0.20794965923499614 0.20880673216968312 0.21028112895432954 0.21085172038254035 0.21118833614077315 0.21144784392504143 0.2115574039773694 0.2107157564470337 0.20914995965453592 0.2077689784700309 0.2071605154807173 0.20671203783217768 0.20737205848812756 0.20437420298948827 0.20160174057596905 0.18868845674071535 0.17908667345861418 0.17127006476122292 0.16372873865662954 0.156466106036967 0.1499634690060851 0.1435229539492558 0.13710642492342914 0.13143324930707176 0.12506015519407188 0.11940186323566611 0.114799073564913 0.11001363321529524 0.10519239411298832 0.10092182263344728 0.09706748457740047 0.09354697632203729 0.09029597639933291 0.08728381299955769 0.08447237254983647 0.08185879342324195 0.07942692520241207 0.0772358444948787 0.07512056193997235 0.0730655133312206 0.07125505529424132 0.06975200746967261 0.06816349998069723 0.06697172669538028 0.06615380989133803 0.06515976853820502 0.06388699069595437 0.06276791383805297 0.06151338934579158 0.060145262068844844 0.05910546139836341 0.05739084822743049 0.05599677270331003 0.053562989297808054 0.05188732483954979 0.050658256485149246 0.04970431068391827 0.04894922796826514 0.04831463965586663 0.04771481637747088 0.04725663246327255 0.04688020341406624 0.04667317730370206 0.04667159386817578 0.04690909874885997 0.047194528646654764 0.04754862100595014 0.04807056482920205 0.04883524728811232 0.04983603729404769 0.051050335946368104 0.052492032801460045 0.054084279326831616 0.05589855186564298 0.05786722345792463 0.06003266032145567 0.06242510781026292
0.4907384369126732 0.4904828279402305 0.4906922517175416 0.4917818573424633 0.4943212473602248 0.49851968163441684 0.5042193005766553 0.5140705976129677 0.5173789806956322 0.5248214567535749 0.5339017173216474 0.5405325057110638 0.5454113616658716 0.5408991920396375 0.540347282447198 0.5444742653433855 0.5422841241303635 0.5355107857451689 0.5321580161509447 0.5326587830589999 0.5262955882252912 0.5147452355969921 0.5008086163448278 0.48835949460048667 0.4795932808267406 0.47164067262980003 0.4628615356088346 0.4548951843564684 0.4489993273851861 0.44196527537251906 0.43100485993625975 0.421813006418665 0.41209107944299095 0.4026599255389897 0.39243424995382203 0.38117797796874703 0.3707599206158157 0.3611594032972593 0.35217973087293014 0.34380054742662425 0.33582941669023453 0.3283216103435364 0.32128696810372687 0.3146725644414398 0.30830141960486684 0.3020824254530217 0.29612652516682286 0.29056361582144097 0.2854123571862005 0.2806588176599431 0.27612071245369213 0.2720506698047618 0.2683560265207339 0.26315615200444786 0.2577002251780511 0.25269744958998536 0.24807402581369123 0.24364122419542747 0.23956768908961779 0.23582367499565582 0.2322317719369141 0.22863844148844192 0.2253205706258928 0.22221841889391322 0.21937520578817638 0.2167878570424844 0.21449137443161986 0.212503610815306 0.21046493060948887 0.20862632581104765 0.20696126021240574 0.2056441297420053 0.20471057729861536 0.20438629553465554 0.20470096672227578 0.20467857724811406 0.20494347188349785 0.20565093710037477 0.20665965874384837 0.2074698315648576 0.20890643785557422 0.2079119826358141 0.20639367803995706 0.20540420326160277 0.2043145977891272 0.20185559145109203 0.19947148876155252 0.1983964640195055 0.2003729609948168 0.19480086663730709 0.18731235122705217 0.17962129476739644 0.17228624855534383 0.16533803916296644 0.15890933751060943 0.15279265268135586 0.1467495152704381 0.14076164765076685 0.13529005310764075 0.13092020865728948 0.1245018345072311 0.1188786200969571 0.11413256942130584 0.10971784983532015 0.10555274234151056 0.10171085003166128 0.09817399917778122 0.09487925089016723 0.09184835405192597 0.08903226451299778 0.08640081551296883 0.08393371233821112 0.0816232469832229 0.07949067491356684 0.077525327387611 0.07561223921252577 0.07390047782756237 0.07226205297123227 0.07085612495217755 0.06984111407931817 0.0692576264697733 0.06832017154453064 0.06669704061153277 0.06592400888496476 0.06499748972063633 0.06368705969981352 0.06209741947338326 0.06019112577483109 0.057630562734712835 0.055574821260317694 0.05394412780585885 0.05270177764886283 0.051722608313208795 0.05093235670938011 0.05035860154986443 0.049766619577095154 0.049395554762587356 0.04902490326876246 0.04894649462396708 0.04887101967825947 0.049020530734720014 0.049263960597672365 0.049505326034339554 0.0499279215019032 0.05062388872593759 0.05152390199348141 0.05266809909776274 0.05404811235395519 0.055596460690565015 0.05736459938516121 0.05925899426539593 0.06135188872025956 0.06364962621056046
0.49168651427979365 0.49149241152959294 0.4923140313183089 0.4937385150758493 0.49577876748723027 0.49931580844975215 0.5033722207320432 0.5092617528748878 0.5166100474009558 0.5200725342435821 0.5285276953524395 0.5346584952382601 0.5378294398583003 0.5390363679729112 0.5410700783190243 0.5419034667151625 0.544685684102549 0.5390883296557232 0.5340588485224251 0.5338876416248164 0.524219065530204 0.5098970218862448 0.49978372994085213 0.48547738736658824 0.47661956914276327 0.4726751941220252 0.4603020759852405 0.4504501012455484 0.4422002616113002 0.4341181606249084 0.42557438953426885 0.416441713927859 0.40706853685164185 0.3973484617021182 0.3878326214803545 0.37803601989548213 0.3688139334969306 0.3601924677308992 0.35186616434646395 0.34411300365999736 0.33641094683751954 0.329200902154309 0.3221621239780541 0.31560548917906756 0.3092990783549347 0.3029314108106414 0.2964674611336481 0.29057625379327956 0.285157062101604 0.2801208250252291 0.27539863103951345 0.27117062867685077 0.26724141588532546 0.26192575310315014 0.2566668125056859 0.25173666814037327 0.247060463666505 0.24269775013952613 0.23867230001028913 0.23499958683697136 0.2312547078233104 0.22774185416989554 0.2245294461303731 0.22153824971600636 0.21875378832397077 0.21620636838621685 0.21387747881582453 0.21191016905186102 0.21012240876455981 0.20807635522029885 0.2060585944265593 0.20429759566243189 0.20300279476982908 0.20213638409684767 0.20195719529801215 0.20237290686489384 0.20215112308611755 0.20349045175033068 0.20417078621355805 0.20538710582129047 0.20566372604390765 0.20341642114345504 0.20278559631617493 0.2027615640245721 0.19964255831433422 0.19629584655382235 0.1929512747814912 0.19020921311675099 0.18738620526182362 0.18294786738946184 0.17744820518433352 0.17196731553396694 0.16617228108509247 0.16068142678727565 0.15552092264524106 0.1499754094244696 0.14487557049347055 0.13906158472060146 0.13364449306764214 0.12869498478271083 0.12371091469298005 0.1184500280192734 0.11396404248209674 0.10995740812723288 0.10619635811977707 0.10272282096884416 0.0995069312406313 0.09651166747633078 0.09374090736432221 0.09115035290773471 0.08870634935729298 0.08639728842380887 0.08421078298770197 0.08215137106139751 0.08025493442756011 0.07846289682336449 0.07666729263699161 0.075197147736213 0.07367487801527937 0.07272962405851303 0.07182163939815019 0.07108306641052772 0.06976932767659398 0.06845397297167194 0.06744432282337731 0.06615649807076043 0.06419300724325244 0.06209230084876033 0.059628654088911874 0.05779891894386865 0.05629623634444806 0.05507441437315943 0.05405130774442557 0.05323585862737793 0.052603152973974554 0.0520889241037896 0.05173335450007512 0.05141319835779545 0.05133713606002829 0.05127433020490615 0.05118638111036014 0.051392208408188825 0.0514916967798514 0.0518999426215066 0.052565637577459995 0.05341091488306262 0.05448441594576236 0.055803348093185705 0.057332266043472274 0.05903778314332307 0.06090138055521867 0.06292501557801225 0.06513145830996615
0.49347957791397984 0.49289857353019373 0.49491872547922766 0.4965699490163951 0.4980519736328598 0.5008291126147582 0.5036942093609732 0.5069043307712838 0.5104385770934654 0.5151199661681994 0.5246766974186985 0.5278601468014786 0.5345784187571148 0.5394427487995732 0.5413021208788253 0.5455830777959576 0.5432634557877032 0.5421828733223749 0.5378380107624335 0.5360358942722283 0.5243268204663929 0.5070007914952539 0.49315862548571643 0.48209694245091883 0.4738013920024378 0.46477238076028904 0.45486582965028555 0.44696990389826363 0.439377165112378 0.4304281487315764 0.4234673720959921 0.4135564482449949 0.4030439423124713 0.3939641161729505 0.38478736675264735 0.3760576162919867 0.36788829666977957 0.3603338378630376 0.35235465073307337 0.34491029890645464 0.3374307031302343 0.3308505695456272 0.3232000869065193 0.316437632960718 0.31027746993324823 0.3038124993730211 0.2970683819507694 0.2909247931318295 0.28529291257786904 0.2800301808850403 0.2750867372555095 0.2703995806349933 0.2660285139063375 0.26165827138088504 0.25614614031524097 0.2510433550733884 0.24638339955743363 0.24206916509168774 0.23805639688597005 0.2342339416628528 0.2305881027867589 0.22719772551629078 0.22409842273017305 0.22125134563138726 0.21857195878320246 0.2161005733730614 0.21366384825008145 0.21171977617587118 0.21047133691370562 0.20836820035987838 0.2055356047475968 0.2033785958644554 0.20158262405099314 0.20022851529259078 0.19938967817941516 0.19912535520041133 0.19902381502874839 0.1993893836866741 0.20086714759552968 0.19997137412643623 0.20021521422069438 0.19967262846709144 0.20096566149905556 0.19992792204161852 0.19524424847762456 0.1917793375941931 0.1867256041820612 0.1831269191589697 0.17859522706238365 0.17439033170880056 0.1702937805329342 0.1656528152599651 0.16118056318589208 0.15722586607632622 0.1527431659372902 0.14807587297157251 0.14342000484414028 0.13789908932541087 0.1324721082642445 0.12713890940272646 0.1224901863781244 0.11812839856630278 0.11421923379095059 0.11066160653031037 0.10719656265855564 0.10407628008535104 0.10119098967850136 0.09851487694498783 0.09602477088895404 0.09370110481296161 0.09146393391963947 0.08930900861555958 0.0872462442261196 0.08525998336768831 0.08338703476992121 0.08155155964057932 0.07977728035620363 0.07815976037650088 0.07673800296269104 0.0757019501057609 0.07416051696152537 0.07316706584219296 0.07167055881817797 0.07004511514499748 0.06866123782926975 0.06775861348452814 0.06552028908280416 0.06360544833519768 0.061931666353766596 0.0604290607211743 0.05894741827795289 0.05772193176273742 0.05672045362716355 0.05590008494325877 0.055296132925348365 0.05472407785813251 0.054395798737087483 0.05409320608884593 0.053763907864296384 0.05361321944372647 0.05359230262850661 0.05361197528804441 0.05369620935930197 0.05402773647239416 0.054619156465799096 0.05544593088607864 0.056504187855724856 0.05780341015240223 0.05933358960231873 0.06103637975201258 0.06283828776523966 0.06474419309005097 0.06682772620250742
0.4948097319328578 0.4939632176487521 0.49611376249482236 0.4973516892534194 0.49740669798247206 0.5004658287993108 0.5027827410160608 0.5047037707834482 0.5063181784908681 0.5095746317081826 0.5157829212886944 0.523312553820081 0.530382277287959 0.5405231202464298 0.5455273024573124 0.5462434723964629 0.5403663759216106 0.5384102448729964 0.5397538858492308 0.535798342780251 0.5242314130937793 0.5054520507008489 0.48878138130133086 0.4769645975254176 0.4674539594893072 0.4581805583994895 0.45045375119993236 0.4450154009241622 0.43784418513267315 0.4279709181668529 0.41949247048249105 0.4099726948472825 0.4002856543776963 0.39148912639783745 0.3833668489713404 0.37543525033425695 0.3676954342262171 0.3607598396229444 0.3529552539080739 0.3455228816436618 0.33869161498415606 0.3318393468313398 0.3244547131607522 0.3175334497736881 0.31099598292752906 0.30470630497068574 0.2979555614566484 0.29161569644051205 0.2857661193133806 0.2802718840761528 0.27514572193326914 0.2701865391756789 0.26571103764702886 0.2617230619429071 0.25584554371160173 0.25065419043870374 0.24600736990133323 0.24169341324534446 0.23767355644828164 0.23379614254764633 0.23025566562806227 0.2270094535535546 0.2240190945466714 0.2213176942093658 0.2186239430733694 0.2162073497697843 0.21384212649631515 0.21178132225727186 0.2104828014406036 0.2083020353517963 0.20528337029448465 0.20303681236840318 0.2005924304186342 0.19872759578158855 0.1973477406788565 0.19654714124390876 0.19663633938462427 0.19582639126089163 0.19530005857892782 0.19475365168724224 0.1952031397429676 0.1948987562817214 0.1953759570370292 0.19447300949784282 0.19070654157801373 0.18504720036713726 0.17993800756131176 0.17585658188058767 0.17189541561854457 0.16800537124556547 0.16417339777617135 0.16049303427114325 0.15688628499362683 0.1533920306121682 0.14975906631905928 0.1449760326814282 0.14067498588946384 0.13566908364787875 0.1306374913875783 0.12601590762792722 0.12185012462868891 0.11814087043665605 0.114729036181506 0.11156180474111052 0.10852923753579553 0.1058034600267074 0.10327089905687285 0.10092668629445835 0.09877195074238651 0.09672317511360738 0.09476796120824574 0.0928447761100445 0.0909039901748577 0.08895669993957635 0.0869900153990521 0.08506776375915927 0.08322900254976795 0.08169558159028888 0.08013543412647743 0.07832421227394826 0.07684881665578525 0.07539203215945903 0.0739689659063689 0.07229562646113717 0.07041862610396649 0.06898373126802028 0.06744595218622074 0.06589435925616909 0.06460595317110535 0.06329904469925195 0.06199209253373045 0.06078120173228764 0.05972743204983005 0.058928740828865706 0.0582881497194472 0.057612157646008515 0.057323565766748415 0.057007353351014485 0.05650732465507302 0.056225761590765914 0.056208245050534074 0.05602350660376013 0.0561636239026653 0.05638753300368896 0.05690360464979835 0.05770257909153157 0.058734168667126586 0.060040011490389025 0.061660173189923485 0.06347519830521563 0.06501555765085977 0.06675501302240033 0.06878000606900173
0.49495846699413015 0.49416620775125397 0.49475291640562086 0.49535173875763433 0.4958200604293333 0.4969675884906841 0.4983474175662324 0.49975278995919753 0.5018250789898167 0.5049458974828357 0.509892273164711 0.5164508744609175 0.525197560504306 0.5346607213216975 0.5367581846489187 0.5376587229539292 0.5349527057100041 0.5352961807726709 0.535407210008146 0.5300845755727331 0.518191907628995 0.5004183233977342 0.48527722373517035 0.4728234586332175 0.4630003117379547 0.4540958709749733 0.4465716898328835 0.44030982394035034 0.43397310469977307 0.4268264852548609 0.4187805771257736 0.40803099921040836 0.39825209941801154 0.3900817408493862 0.38299063544873085 0.3754725933892035 0.3683612344637981 0.36142766774163926 0.35391816750948063 0.3470668835258515 0.34059169806110584 0.3335572147413391 0.32639468504728225 0.31915129039718454 0.31238407555911984 0.3059022356405815 0.299210891444083 0.29267080556711805 0.28659544547295523 0.2809003967104079 0.27552571225275596 0.2704316205698236 0.2656482452783051 0.260678954278041 0.2555301043902635 0.25055015853652285 0.24587575776459847 0.24156876840011812 0.23747497273211587 0.23367978526571662 0.23022110684627672 0.2270813369157145 0.22419316389665195 0.22164542474565646 0.21911895499740672 0.21691760753519357 0.21429333958521493 0.21193573871215654 0.2096077473546595 0.2075257142750634 0.20451654221839802 0.20202321886833 0.1999896847025739 0.1977271312541402 0.19573632838054955 0.19423380503795876 0.19344691426562535 0.19326981602588347 0.19121236071421485 0.1901481263200202 0.18949369630390817 0.1886057317358248 0.18762149036032594 0.1854261354410044 0.1824166491393914 0.17844220638931518 0.17397945753110325 0.17004819021564277 0.16637118887163435 0.1627875766641856 0.15925573408101174 0.15601048043477736 0.1532967377067045 0.14938200042529806 0.14609594587863897 0.14235684451278519 0.13919588440998204 0.13446706565821448 0.12938587763077192 0.12528948859603295 0.12164372738694389 0.11845848467884229 0.11546265136227456 0.11274772359134294 0.11026038268375167 0.10798038257378169 0.10582884147608278 0.10387318025844623 0.10210005391748903 0.1003389021050874 0.0986970009367431 0.0971218590147409 0.09533426022316549 0.0932449423569426 0.09122501948524993 0.08920718447571836 0.08724386118628777 0.08514236508677477 0.08316360358043852 0.08138103906214665 0.07956703843101505 0.07773020463446847 0.07600824981394647 0.07432566180325752 0.07270647136675502 0.07125115846220949 0.06993386949509439 0.06873131467057185 0.06746069437980139 0.06645786573956146 0.06528129274888211 0.0643881585420148 0.06313845519533175 0.06212095703147596 0.06133718001833448 0.06068155543912326 0.06026208380431338 0.05988680755917808 0.05947648180312468 0.05913637741985478 0.058878992731659446 0.05859474549639379 0.05861214959586963 0.05888403985112348 0.05941109395226643 0.06016353658878663 0.061148953688764524 0.062461673985425785 0.06426493043187384 0.06602366882774029 0.06749315761598611 0.06896917033084418 0.07084428234442525
0.4961160752591377 0.49479994740449434 0.49489142995674223 0.49497674959551285 0.4949396737945267 0.49482685002094534 0.495867932254928 0.49707821825206794 0.49894776876099806 0.5014587888133841 0.5048761790314024 0.5102699235248997 0.5151847253823203 0.5215975916348837 0.5295186370501669 0.5365539904555666 0.5339391534112035 0.5283147783737747 0.5260755977202439 0.5199297899889535 0.5080293998725847 0.4934085260441508 0.4811789193415813 0.46919100847896883 0.46008031318189213 0.4511545475239645 0.4433002427321583 0.4370504361221725 0.43319241762914396 0.426984574146606 0.41555420484049743 0.4055331623424056 0.39700143779437375 0.3895864157390815 0.3827838544916473 0.3766362461796884 0.3703430428013821 0.36260900969966686 0.35521023679366703 0.3491253802375262 0.3432532728143385 0.33636232588119896 0.32860364640882206 0.32137174728679907 0.31461768908777166 0.3078084000783098 0.30075632172597466 0.29407341341670834 0.28781229145770526 0.28190003407186004 0.27635870032553556 0.27111947147800636 0.2659427072904499 0.2606290805299611 0.2555327248625428 0.25064276098810906 0.24599671833652026 0.24163608137718237 0.2375609863770101 0.23383755008023366 0.23045628369441845 0.22732469722027682 0.22462538492113324 0.2222216744082685 0.22014509976858046 0.21742647462896936 0.2150514499288849 0.21232577718264656 0.2093741277512949 0.20725193757398666 0.20414266152259608 0.20167347874500888 0.1993886029056009 0.19750920862359012 0.19461615971723023 0.192306827596932 0.19062673143252368 0.18924668548014473 0.18760527342063868 0.18624688321257363 0.18547559627823446 0.1835012100620858 0.18129562865217694 0.1788603218201033 0.17590852204282634 0.17249655100327813 0.16885841071590443 0.16533471957700335 0.1619984226493249 0.1586437930143662 0.15527843339918893 0.1520492375570019 0.148994159170221 0.14593560774686837 0.1433179973685617 0.13964133282036517 0.13583274956002703 0.13202995174627954 0.1282556199474811 0.12487755359001652 0.12175202597150293 0.11901758604593311 0.11659399745075462 0.11441835957418639 0.11235135516500733 0.11053729462392295 0.10893355951120078 0.10732398765345644 0.1059985698667144 0.10481652469510214 0.10347229324895614 0.1023284416174043 0.10031721969626163 0.09849193610802041 0.09689850890205576 0.09415845316630603 0.09162471980543452 0.08930048329523735 0.0869018864216463 0.08458652641864299 0.08258641317815875 0.08059192260054662 0.07870778018966029 0.07708777078919515 0.0756076323297096 0.07426981891400193 0.07300358268015245 0.07177317058355354 0.07067637264409987 0.06976860364261142 0.06883926347078782 0.06806578322547223 0.0669845543955644 0.06570790700101596 0.06472118155220237 0.06391731396451146 0.06330277089140159 0.06272519940082663 0.06227860831709085 0.06185604694284221 0.061526358621623034 0.061281474067232944 0.06127856589624016 0.06157077262739828 0.062061260626809556 0.06278845755030088 0.06372009086216773 0.06495396614354813 0.06654126808920575 0.06846032551613954 0.06986547073156577 0.0713301360558536 0.07314882818378865
0.4977907669690844 0.4961688611029373 0.4954742789649505 0.49452444050344296 0.4938706551278809 0.4939789539715908 0.49483779325116367 0.4962044851901082 0.49734362991555026 0.4988962108676377 0.5006558455674229 0.5036761649026807 0.5073173458511858 0.5134062196664382 0.52335957620504 0.5311278507085584 0.5273151239223374 0.5231532883125054 0.5198135869296872 0.5121592952662579 0.5058050821868676 0.4886236275206055 0.47545898354723937 0.465068065907243 0.456221069477572 0.4481285544690664 0.44132543716354056 0.4347221474592714 0.43006119278497174 0.42564143272140625 0.41333524751957934 0.4040355021038672 0.3964267171959147 0.3897374904495048 0.38322531197161896 0.37831431926458736 0.3719137316643435 0.3636040456816313 0.3565179077141117 0.35037225437221864 0.3450361920854093 0.33900965996084415 0.3316412561938035 0.3245633517797622 0.3175582260239115 0.31018203464954425 0.3028100882769805 0.2959130279041847 0.2894643375426302 0.2832753564513312 0.2775334089023213 0.27214677628905143 0.2665859604001546 0.2611902325208799 0.25601315973665306 0.2510719997949697 0.24641223131459192 0.2420004294018055 0.2379061796322834 0.23413711519485905 0.230711607550872 0.2276209409596032 0.2250651551599406 0.2231927679050125 0.22034903457212274 0.21783720787125763 0.21548574744517934 0.2123215742490746 0.20898307900838015 0.20623229078534352 0.20372620034054253 0.2015680873378959 0.1989992642667117 0.19680967564676854 0.19379291489741154 0.190794352376753 0.188513803063655 0.1865457903553875 0.1847008327816446 0.1829397432831743 0.18126835495065008 0.17930723102542753 0.1768819693756459 0.17456160321967193 0.1712143030896886 0.16795465307984608 0.16466834498057398 0.16142749448965774 0.15833982826812118 0.15536988936721022 0.1522194778982501 0.14885917079174976 0.14584617010867812 0.14313311247654362 0.1399771211209017 0.1367635632540706 0.13356155481869203 0.1304650089626884 0.12752919803504056 0.12480808378548827 0.12224444086255558 0.12005956454882497 0.11813977039640756 0.11646260136687411 0.11496610131678675 0.11366468081064637 0.11233908407223811 0.11126378280056066 0.11067899075263368 0.11067172822620555 0.10922217604693506 0.10879974753435225 0.10628415698646794 0.10456408487860228 0.10409033407147975 0.09997850408940416 0.09689188213548701 0.09430709396319717 0.09121556563113195 0.08837955759643462 0.0859645360867287 0.08384376617506858 0.0820250506530131 0.08044428405761428 0.07907690531784435 0.0777736586102641 0.07652241476551104 0.07544748113760412 0.07441773047298862 0.07381500894317371 0.07300742539305995 0.07176943275230206 0.07069392479138656 0.06963402481281038 0.06866126932213601 0.06765731126886221 0.06678891850775634 0.0661395776261223 0.06554499444439567 0.06489282977364337 0.06441644707669457 0.06419556747388398 0.06420393184618628 0.06442082094083826 0.0649129059648321 0.06568080134359734 0.066497623596281 0.06762613443594812 0.06903057829102328 0.07083501574543495 0.07225799535297672 0.07380753230056132 0.07568271084572883
0.5002322638293696 0.49818906112853534 0.4972597971524337 0.4959593866199196 0.4942493978900284 0.4944149559440891 0.4952994310111339 0.4947709936853823 0.49604286580561197 0.49618437683370065 0.49699290937597934 0.49869100766811997 0.5012972597548185 0.5052227641486707 0.5110024306538011 0.5181991291820801 0.5205371413699612 0.5178503236176732 0.5121144936581943 0.5046766858869733 0.497250426283848 0.48399866605138114 0.4712571793331668 0.461743939544375 0.45342800170440134 0.44601825594737493 0.43951105299557974 0.4325173467142516 0.4265651068972724 0.41916980493971795 0.410716427821032 0.4034365785438824 0.3959262282452927 0.3895122627548223 0.38379041106893513 0.37785198968393957 0.3715772154920722 0.3653489131891964 0.35857227569530026 0.3524830004517911 0.34686284691323965 0.3414896635690204 0.33505324465554925 0.3288431353114358 0.32149654728767907 0.31317389339891183 0.3052984839874378 0.29808824186008326 0.29133275112003876 0.2849856263864984 0.2790080756265853 0.27334108214358543 0.26775788979590526 0.2621761917483368 0.2568709981283969 0.25183988443437155 0.247088162673816 0.24263373640211197 0.23848694088053082 0.23466349854130536 0.23119428144139442 0.22804661365139559 0.22547998125464608 0.22371122439188176 0.22086804210966854 0.21811315571407475 0.2159132699176781 0.2122733527051513 0.20898827044222135 0.20615583518290106 0.2036805606295893 0.2008839770789241 0.1978657663154666 0.1951664729594572 0.19254568817315082 0.18957634784989302 0.1870340263132657 0.18482736873540276 0.18252583737732928 0.1803877707343448 0.17832358851983143 0.17652924252718938 0.1734991488011796 0.17054670817672485 0.16746767181160613 0.16438092456425793 0.16131627944491722 0.15831271459196863 0.1554304610396507 0.1524001484906709 0.14956245489315814 0.1462497759474195 0.14331451976657128 0.14044557703875454 0.13757476698235976 0.1348522628986174 0.13223235724224172 0.12969586913391587 0.1272865103664152 0.12504973222855975 0.1231022403674047 0.12149194949061329 0.12004212109712827 0.11889339305212694 0.11808912975252082 0.1174405200226028 0.11635651752317394 0.11583956268963365 0.11563809741387658 0.11611306744399125 0.11543829536972469 0.1133497594755871 0.11226488559495695 0.11009274352620237 0.10845286389551821 0.10586993535961428 0.10330775244004688 0.10100793583129834 0.09631414269876352 0.09261051306298766 0.08982671188212374 0.087601570144075 0.0857943405436045 0.08426719812421912 0.08292729605243224 0.08170838525987308 0.08060737754428005 0.07963297805016399 0.0785718905849226 0.07773683211321997 0.0771012293458526 0.0759694847014994 0.07494190478567632 0.07385658251527541 0.07292019485925652 0.07198725432752874 0.07077352441152612 0.07018627693279231 0.06942056958918341 0.06836085467231087 0.06765313436645252 0.06737536115202773 0.06741418560976796 0.0675354725444774 0.0680196778153256 0.06863572274063609 0.06943868155782434 0.07040205149456205 0.0717103121722759 0.07326124480376732 0.07483684902469273 0.07653028118499837 0.0784685585621149
0.5025994907641633 0.5000271607434832 0.49862999437327093 0.49709805094589055 0.49522795046632295 0.4944414325718411 0.49524435347457707 0.49359363243097604 0.4936952084094169 0.4942533216554244 0.4949320277252901 0.4959052247550951 0.4967461768855968 0.49873630420393933 0.5013824029310683 0.5061707265485104 0.5142820884093952 0.5106596445832711 0.5016712669371615 0.4949910309633665 0.48972354975830307 0.47751929409357086 0.46760409485805704 0.45949661028795746 0.45241418358819196 0.44498396938663043 0.43809420765577134 0.4311234472653401 0.42465938796630326 0.416538771428726 0.4087854386352069 0.40192861085858744 0.3950878720769941 0.38960201295711033 0.38562026341923505 0.37934910502793573 0.3728461070672571 0.3676365603442276 0.36106746614804847 0.3555054411396644 0.3496005115321685 0.34411134830116297 0.3380368210048478 0.3315712660732287 0.32445953282024637 0.31683972714028874 0.30828376273622055 0.3005405924653869 0.293580869198244 0.2870850735002648 0.2809412975345971 0.2750032067533286 0.26930046501692145 0.2635444548571955 0.25807603900554704 0.25290555033632045 0.24803700020097463 0.24349521421245676 0.2392735428779969 0.23540058237973344 0.23185153199833125 0.22870188936691282 0.22600053567650463 0.22351133726384176 0.22124061269102166 0.21905931627158923 0.21627759214775819 0.2126565134857029 0.2097067941428473 0.20648472531836018 0.20332356142876257 0.20062383741868822 0.19744177709282365 0.1944098848626902 0.19192757208105765 0.18871554234149518 0.18615951328976682 0.18394237355098986 0.18097863020008892 0.17837898217429454 0.17620143443608408 0.17413410685759692 0.17095517075269998 0.16766912763023317 0.16462365608522397 0.1615869305637955 0.15858628248070417 0.15580733115597956 0.15305598557235692 0.15001104105913596 0.14709474571812317 0.14405571929566643 0.14122940107292892 0.13850399389718537 0.13595765309075022 0.13358918845406917 0.13142523618380414 0.12934622474242977 0.1274322197243362 0.1257110553499288 0.12434964198556064 0.12335212712493206 0.12250372465922042 0.12199103008868868 0.121280440165139 0.12108582270794116 0.12106846964568023 0.12182792492223082 0.12170933812762809 0.12147417655606765 0.12022029018587677 0.11827909308068113 0.1180251213624365 0.1163505171587811 0.11559607017653901 0.11141314756999011 0.10935330086277689 0.10690388414648132 0.10171140502253329 0.09702239543284588 0.094082708840142 0.09184321716039116 0.0900402167107467 0.08857258039990956 0.08736844899441076 0.08632325774489598 0.08525244248837552 0.08437834259374125 0.08329707537343832 0.08230875131020547 0.08145475963110475 0.08053169481486043 0.07963423136714007 0.07843835362995263 0.07728495956914103 0.07625542614005974 0.07493499626261992 0.07411140278391792 0.073146547137361 0.07188842316882406 0.07113041987883996 0.07083597277329542 0.0708899197073551 0.07088497659096762 0.07121240806464328 0.0718255472054265 0.07245010853281407 0.07337541506210943 0.07464546609564537 0.07618904025963354 0.07775673605088126 0.07949914812938187 0.08148455338507792
0.5041850899757727 0.5020939368648406 0.5017373631202695 0.4993873207548819 0.49783071807529927 0.4949739317635077 0.4934519931503231 0.49264133244088393 0.4927184468993832 0.4939105841335748 0.49469560774034105 0.494465337737261 0.49406610734993145 0.4937634424428697 0.49458199748167525 0.4963104255853097 0.49991356200095083 0.5033712264224603 0.4935658317342396 0.4854947755430283 0.47934673064931493 0.4721002934924599 0.4650687205531195 0.45844562147353624 0.4518320462167062 0.4456653957315464 0.43817376129331576 0.431418683090003 0.42572562224977434 0.41599597941328553 0.40807139797303577 0.4012450899796352 0.39488680242103263 0.3895757576239366 0.3853296159413894 0.38018460444986063 0.3742132029129806 0.36867567958558517 0.3643596338292501 0.3601493465439048 0.3537658998731195 0.3485402451810721 0.34278766831680485 0.3344846655402375 0.32733310424653533 0.3210505934230352 0.3116793548364895 0.30335643200355933 0.29627291277319573 0.2896167159695757 0.28344907695803584 0.2771434088854539 0.2711402390669832 0.2652739646406328 0.2596156324935292 0.2542671496110601 0.24924744163247625 0.24457636774255537 0.2402622071302938 0.2363165568380081 0.23278768002215727 0.2296597320756022 0.2270318624492874 0.22401441615953774 0.22155387858574013 0.22007526586466533 0.21762778446645176 0.21341104757547116 0.21014463803187794 0.2065813898712468 0.20348925770835408 0.20096584075849624 0.19794240588125928 0.19421759465677607 0.19115589757716828 0.18814556921196454 0.18569994585646127 0.18368534902327208 0.17994758123462673 0.1768976023994042 0.17490000916163614 0.17300480702067617 0.16913569649968932 0.16551414268093756 0.16241155622880254 0.15950444327616486 0.1564528134243135 0.15364166189908762 0.15090417298718387 0.14814718216889944 0.14516893232360892 0.14237789704992324 0.1396635713594525 0.13714971313919402 0.1348685395878154 0.13282151553660795 0.13102882310431832 0.12938551288001782 0.12795206466366488 0.12680377082609903 0.1260450111324954 0.125923860530913 0.1255981332339048 0.12519488476399002 0.1246893643838309 0.12479840649530767 0.12628921362698062 0.13024360108146643 0.1293795397946149 0.12738842714295637 0.12574677445148746 0.12308172210174617 0.1230224825397529 0.12108681441985493 0.11851897984871866 0.1171267696069584 0.11484897316662636 0.11004635517153599 0.10467018200681784 0.1009385970711148 0.09837433161542453 0.09674713541061454 0.09506416877769744 0.09342144253892765 0.09238004925788672 0.09151413738248984 0.09055661601091256 0.08970339628899089 0.08873429128151473 0.08769216250085864 0.08693096111653548 0.08603264110126686 0.08481142866030555 0.08361022225031384 0.08208660200711118 0.08076408195966141 0.07942553136553433 0.07795972235066793 0.07676833356795469 0.07559744017871185 0.07483149613536569 0.07454697259014464 0.07458022108580468 0.07447386008900189 0.07470148307715595 0.07512616889119522 0.07570296599636668 0.07655045297287942 0.07785486268306259 0.07963213925396512 0.08102632721177297 0.0828011527684171 0.0848178264744827
0.5070698087624084 0.5047048878660083 0.5041343567666394 0.5030965162103497 0.5008876423755351 0.49635355738413545 0.49332115120621917 0.49206928484914736 0.49250028699046283 0.4933454524656531 0.49245769878227647 0.4914221680523666 0.4916351332054939 0.4904119922281723 0.4893377740419095 0.4888063789181914 0.4897022938857151 0.4919101071866134 0.48472314917055204 0.47849068000505013 0.47333939121584867 0.46880371482388117 0.4644958639534168 0.45865923899064 0.4537485155012092 0.4482710922513408 0.44014623150710475 0.4325036689939985 0.42358269496362316 0.4153916136810762 0.4084342573562744 0.40188961100368514 0.3954099358617673 0.39008063261938136 0.38567460639556844 0.3816526179494389 0.37620081953412504 0.3702536549588716 0.36572422476081395 0.36348198807100857 0.35794801197341936 0.3514543824492108 0.3453911144323265 0.338701557565189 0.33153514475270623 0.32283452779507177 0.3141973659090895 0.3063696161001431 0.2993399713737985 0.29234685007823064 0.2859364549040945 0.2797876314772569 0.2738086412760915 0.267501656610204 0.2614775276669755 0.2558905307320083 0.25069205187593957 0.24587657711712899 0.2414369960188545 0.23741410175794433 0.2339479613470033 0.23077485151827148 0.2275751237540306 0.22461835497421057 0.22218060251611813 0.220692981413512 0.2183693215781129 0.2144070701369342 0.2106775533324997 0.20717419729597755 0.20365245350901873 0.20125424855300575 0.19797741502379504 0.19438688326395095 0.1914373435277362 0.1879942956062128 0.18515622715165003 0.18290816585244077 0.17885510281530073 0.17559043481073625 0.17370001870021493 0.17346976841435705 0.16784831515508086 0.16385670051525772 0.16077823326963134 0.15773525129796143 0.15482235591987892 0.1520106950254628 0.1492055224647824 0.14645189992841148 0.14382111187413027 0.1412181509190095 0.13855078798015502 0.13623048318304265 0.13422321893934053 0.13248319043603377 0.13107059461173096 0.12995724746334347 0.12897402918804082 0.12827695544525625 0.12808737414146318 0.12813891973439465 0.12790391352882535 0.1280363650288213 0.1281410162771989 0.12936889749244446 0.13136506312188065 0.133582777760418 0.13504639281876785 0.13343144216229005 0.1304638227575869 0.12741782446928837 0.12698064909601223 0.12493128341786193 0.12275944407687826 0.1231998376890675 0.11776483138976936 0.11196236743676963 0.10769334656729738 0.10466873750994324 0.10284826967854555 0.1017795894627126 0.10057353600496435 0.09877159512603258 0.09827715971962446 0.09801449942806574 0.09717420612501593 0.09617938589904572 0.09488072778888366 0.09393764260411729 0.09311770237983667 0.09200871636415468 0.09071695026614361 0.08917655351852659 0.08758248478624 0.08591635616179495 0.08427288986357209 0.08242931824580986 0.08084565394163142 0.07960831697697575 0.07880954542350917 0.07845299630591983 0.07822304918945985 0.07803299580819864 0.07815142518106277 0.07847966881013795 0.07904867830917346 0.07989449933989529 0.0811715606144722 0.08276639474706383 0.08451584339865426 0.08650135155059269 0.08852422143963576
0.5120825722667962 0.5079484846366622 0.5068969987391725 0.5035654052528569 0.5009661554900564 0.49800103541326357 0.49374141531955945 0.49213223350521146 0.492781607160625 0.49295667527464715 0.4909877667344387 0.4892414249502333 0.4888684938172561 0.48768210098751813 0.48509914095379564 0.483229318018416 0.4820465672483482 0.48056024297607786 0.47712546004109574 0.47337260146848753 0.47020335428512094 0.4671629400862066 0.46394503277558047 0.460637608367805 0.4579349618898237 0.4496168207239969 0.4396624803399028 0.43162659284203164 0.4230552209865494 0.4156014856964998 0.40921408342215104 0.4025992778199156 0.3964798533360181 0.39158637513276756 0.387115097201282 0.3819862496091247 0.3775413616439118 0.3728125414098987 0.3670047886236582 0.3632407938853691 0.3611057305702238 0.35544290735908696 0.3474755336819355 0.3401180107308715 0.3334533042110551 0.3247353097104009 0.31659592684041904 0.3091870048108112 0.30201760992404136 0.29544668794401285 0.289171349384215 0.2831062520569288 0.2776810736430877 0.2701080927119794 0.2635653695256023 0.25775722395237 0.252355513928496 0.24738526056394827 0.242802487883458 0.238642704635913 0.2348812291499501 0.23140247170333292 0.22824481557320453 0.2257080252841046 0.22284115057111137 0.220848151179122 0.21843234031190775 0.21473116092458017 0.21136847499713843 0.2073289561086422 0.20377548943711457 0.20130766152795865 0.19817254320947666 0.19520972843593254 0.19240541939854458 0.18823179938690154 0.18455226092682073 0.1816381209191189 0.17772548965530702 0.17433214789201662 0.17171034317657533 0.16931546427944313 0.16588444151185355 0.1626314157359558 0.15987555763599992 0.15676281410017723 0.15375999500145004 0.15102760260652234 0.14829477296315682 0.1454059351298544 0.14263561980405237 0.14009388177205767 0.13776413526186762 0.1356918218291333 0.1339308421321289 0.13250011715896698 0.13151660769006296 0.13109252658275192 0.13060560296125176 0.1299687422894259 0.12992531750206934 0.13022629205889177 0.13046800028585073 0.13094528615468745 0.13216695752269134 0.1351803087131127 0.13570220710133113 0.13522924658453064 0.1358701588009957 0.13582541927549602 0.13311471672550457 0.1306648890793131 0.12935990768548672 0.12839795557188183 0.12743061223229452 0.12791688315059535 0.1207137351655922 0.11474210568967508 0.11107991851913021 0.10855126133897737 0.10673432490841968 0.10520641846434316 0.10419336225213995 0.10342709927669158 0.10371479699663969 0.10631655228828213 0.10536284215616915 0.10449600011628798 0.10187661959219724 0.10141215616554815 0.1008642992838044 0.09980981211573905 0.09799718953806934 0.09632308371249838 0.09422088345042601 0.09164818211912745 0.0894267100470715 0.08731336071626938 0.08541177332593526 0.08393660119579711 0.08297578257732482 0.0822955466029021 0.08187650524250252 0.08162347280300482 0.08162721410374602 0.08188115388728166 0.08250365102030771 0.08342109438545114 0.08473079000222279 0.08640417023463508 0.08842559301997772 0.09063253661457364 0.09265728672704823
0.5160973817352159 0.5100604501407987 0.5066632043115502 0.5052300302298699 0.5005896923355242 0.4968179527359687 0.4939377804403584 0.49238382314385915 0.4919744678150164 0.4917570873711611 0.4905212987684919 0.487686213016031 0.48632390415617 0.48512269434574196 0.4826310183126449 0.4794496843941611 0.47698362816637935 0.47465362378610715 0.4723662785316017 0.4701283532922003 0.4686221697824889 0.46780569303919217 0.4656603104676284 0.46412295243498297 0.46002535763208646 0.45042643570304675 0.43992304073794786 0.43265607632395287 0.42370941042398874 0.4167237446336843 0.41047202950665596 0.40369377562173436 0.3979814182629493 0.39389244381937705 0.3889846487696617 0.38321694502077946 0.37753485451050006 0.3729366033064093 0.3675899126427735 0.3634165513332482 0.36006934431488075 0.3573978111304635 0.35194683223414197 0.3426613142440793 0.33612938848266816 0.3274483872873089 0.3193575256344872 0.3121392576645008 0.30530119473688755 0.29924200374296905 0.2939689435734534 0.2867560916990821 0.2795495491874336 0.27251389311125274 0.2658527746469873 0.2598055761161515 0.25422199897857284 0.2490844604899812 0.24435650124271843 0.24007955275411125 0.23604975174549553 0.2324318678136181 0.22912396599599655 0.2262818917029874 0.2238222275781199 0.2209120785158579 0.21827685714475165 0.2147299714233259 0.21070142788474927 0.20688931574382735 0.2035382968682381 0.20083923963887834 0.1983408348583405 0.19610334501820914 0.1927156092454848 0.18810292572219753 0.1842179007801315 0.18119445596731293 0.17690356044674332 0.1732393527001662 0.1700746706024125 0.16720718839447046 0.1644839167051053 0.1617817718348282 0.15984502827693786 0.1565265288467214 0.15327103062615696 0.1508038216053732 0.1484152205023624 0.14488966828995448 0.14183043721592936 0.13942770764846146 0.13732241187651023 0.13546902037139413 0.13394216074707005 0.13279181868787432 0.13209793137751713 0.1319004328105829 0.13219300572279571 0.13187160176835375 0.13197315327618675 0.13247245722771672 0.13315340823366062 0.134255951205007 0.13607012926677764 0.13628741469120975 0.13601674778187156 0.13619845330651265 0.1364325841993652 0.13623601093502932 0.13568445688408395 0.1356442180399164 0.1329243843742544 0.1313809027329507 0.13314496789161978 0.13050776274704412 0.12240216616305555 0.11757458282512188 0.11413898257521062 0.11164490238137938 0.1099173825610121 0.10857738655623385 0.10775887400074201 0.10715090745137787 0.10795986900978775 0.11049802806139165 0.1096710342116617 0.11026301698901787 0.10826818989508108 0.10816434521280174 0.1107442664952242 0.11047274870896086 0.10671415963269301 0.10511395176910908 0.1026676297114862 0.09858168945528414 0.09511708442197232 0.09249542859464456 0.0904235332619897 0.0886361593357942 0.08748722689690326 0.0866030112793197 0.08579699918637344 0.08535504949958797 0.08535651733882212 0.0857028559707481 0.08626081011473766 0.08722316049099303 0.08857733709931895 0.09039019544740931 0.09281463411580994 0.09571601358598825 0.09744569042361605
0.5162533058704737 0.5104640089125302 0.5064135119046809 0.5035914993283521 0.5001898268845564 0.4969890889026676 0.49477816800865565 0.49380216796943505 0.49270002444281574 0.4908338018203216 0.4888410010541796 0.4868588932506224 0.485787910653595 0.48303453240333954 0.4798985493188377 0.47684880698997445 0.4737540627052204 0.4713070607554869 0.46947400825958235 0.4683824853809283 0.4682397702263729 0.4679064730766603 0.4656923463437697 0.46340680607012086 0.4604183878527445 0.4497054895431863 0.44021922818459824 0.43172236944617337 0.42407701896201744 0.4175633726220653 0.41151374819350256 0.4055372020406379 0.3997891980744452 0.3953469946928096 0.3903043084998289 0.3842739797812099 0.37804756986540095 0.3730606357565283 0.3688541876977552 0.3654814211725045 0.3605433006506094 0.35623398114939303 0.35171399965394323 0.34511741572206184 0.338499231094315 0.3310523393182602 0.3229395007794181 0.31574596872186766 0.30921125449555115 0.30328449058197654 0.29961490466490187 0.2904494646864927 0.28251166535720557 0.2752146464630884 0.26831012887926553 0.2620613700222198 0.256276398173426 0.2509690763626251 0.24606014275762605 0.24157366303037056 0.23744354415365893 0.23370501867402832 0.23026684455066904 0.22721303323341363 0.2248830082619574 0.22143677832118466 0.2185652904218493 0.21478761253054257 0.21097128905454188 0.20713617859388156 0.20361525811071407 0.20054809733566512 0.19774430033565385 0.19507749934287139 0.1921744965120982 0.18817810814188615 0.18397832191832783 0.18050139993553588 0.17639716622895762 0.17246491367692912 0.16901006176039485 0.1659849974869619 0.1632551338407638 0.1610225823328446 0.15860933638677402 0.1559370381230014 0.1532901631245241 0.1500125245738196 0.14776530070541918 0.14407037169068135 0.14117411856866235 0.1389633755397936 0.1370270401050571 0.13543149756164552 0.1341133584243136 0.13328553469918142 0.13297795733943665 0.13311143454835755 0.1335179596098353 0.13428284992270956 0.13481380607512622 0.1351027645649747 0.13621331975826081 0.1386956215133625 0.13806456723231975 0.13776479848449638 0.13782507538129676 0.13940696939069466 0.1393107741806805 0.13955408189748292 0.14000707900349346 0.13877361924124706 0.13620592612809168 0.13330516705169573 0.13405552506637033 0.12829795500755883 0.12332809736043882 0.11989062794441695 0.11742457123306099 0.1154842478337791 0.11373572612644345 0.11260309963220891 0.11184494215704237 0.11152855319186361 0.11183040552294625 0.11226680262907529 0.11282848995495014 0.11418900066053601 0.11389130612424347 0.1152442781217733 0.11619193865355122 0.11772323957069687 0.11523909874828228 0.11149849017957471 0.10921218720856726 0.10697476131704359 0.1013482602095182 0.0984230044784286 0.09615505045055585 0.09356324214896197 0.09254906212667004 0.09164739987755441 0.09013777657451613 0.08943250301199387 0.08939272519711775 0.09002731169221198 0.09028014734668298 0.09141105029447233 0.09267213057615141 0.09476115003406729 0.0977170377775081 0.10145069257921689 0.10280643683399207
0.5174380344504328 0.5115808021763358 0.5072912239622233 0.504051729769885 0.5012553959326382 0.4982785229071942 0.496202545450372 0.4953670957562852 0.494950329923075 0.4924352106847857 0.48982497060892655 0.48739005271693664 0.48498498590271016 0.4837495359069486 0.47903679520245995 0.47498890442763575 0.4717112232029913 0.4692766321731561 0.46789998184931236 0.4679222296996915 0.46927240179571844 0.47068039350845464 0.46845604255246653 0.4671215896956073 0.4607299946369508 0.4504312906763188 0.4413322858267039 0.4321438702983767 0.42483016759008363 0.41843315332578096 0.41215386797840114 0.4069074606316166 0.4026556380049928 0.3965996195508696 0.3906508120061781 0.38447234398261476 0.37903271951371187 0.37458756364735973 0.37143073990480435 0.3677518323624989 0.36297055836948716 0.35790190283841006 0.35354513767640255 0.3495439949199992 0.34330569827515994 0.3360886742369567 0.32748403686905336 0.3197176532348243 0.3125547842665344 0.3063645555644258 0.30125152029599356 0.29371124794162384 0.2863489936635598 0.2781681423541948 0.27093493960168996 0.2644883351359055 0.2585334015357066 0.2530367631152598 0.24795611099868958 0.24330777598778391 0.23912283444425456 0.23533008811144387 0.23158581922402804 0.22823192242240928 0.22545152251263073 0.2222521078516433 0.21872671390604617 0.21585130551898052 0.2123144583171605 0.2080377579099736 0.20425631047840695 0.20095093121080138 0.197958334231532 0.19458164522496135 0.191543755044834 0.18782381904388706 0.18410305508891425 0.18125100104696057 0.1765405705580748 0.17195993981124033 0.16826593131152054 0.16510238818091658 0.16243783709524823 0.15992326576639335 0.15732082673311543 0.15508366846323038 0.15279797638790377 0.14893819816510737 0.14594530042937376 0.14313448954574848 0.1406457864750755 0.1385761657203476 0.13686281407001996 0.13545119954390095 0.13445108051187674 0.1339349569061564 0.1340032051878756 0.13479904874595855 0.13555609725169132 0.1366698423161004 0.1383902188178097 0.13901808068123878 0.1394495492371746 0.14051684602600906 0.1407756073302173 0.14099807291208397 0.14024691167556788 0.14111997814994928 0.14112768038572218 0.1422872681796278 0.1432064372522626 0.14137813478412872 0.13768006946746741 0.13326487385390448 0.13053336395420878 0.12748062704439875 0.1247168411056594 0.1228844435099774 0.12186226692017449 0.12062962171058057 0.11830193229121486 0.11721981684775246 0.11689855288556586 0.116583000308572 0.11698330560345135 0.11620134778295271 0.1162392285914753 0.1168508767453246 0.11974292389287326 0.1215361868312689 0.12114459951164663 0.12140452414293501 0.1223292334903321 0.11946144266891785 0.11692465252108489 0.11117483046172215 0.10649301263998756 0.1036377125072427 0.1006615128108129 0.09845121934813741 0.09662081705156347 0.09545131945298302 0.09462052812817863 0.09364062919489254 0.09328728510744226 0.09339938224562547 0.09397978639444471 0.09529027746092716 0.09664174679843765 0.09930602232638772 0.10274577952199926 0.10624551114515482 0.10881948684825649
0.5196661952137773 0.5135716598933905 0.5093143063147602 0.5066617059769445 0.5032660922387158 0.5006757354986371 0.4988574153419651 0.4971965105524221 0.49579759080139346 0.49515293685909556 0.4936126067633922 0.4897189916919481 0.4851169104943985 0.4824642597672729 0.47971040549333677 0.4743290471794961 0.47057853073686007 0.4681907629929676 0.4669673399942175 0.4672110892374544 0.4693309454472134 0.47275998189086826 0.4735136736075689 0.47163219367028497 0.4654911960692767 0.45249524339599734 0.44215392850345775 0.4329976348875542 0.42611568685718304 0.4205943717133574 0.4141156262342364 0.4090971692456033 0.4050900309514446 0.39995717671466247 0.3916375626547129 0.3853347408408148 0.3805163382473315 0.3767217825101096 0.374716510425945 0.37107479632765705 0.36596451116725986 0.36108647009849926 0.3573009467478289 0.3537919824330997 0.34859794755112483 0.3410827639213524 0.3330787396492401 0.3241900102464472 0.31642555630141495 0.30960107661616193 0.30323566904227606 0.29617504248009746 0.28842936657070956 0.28084291054770316 0.27370799309157534 0.26710166888294584 0.2609782029641234 0.2553081351522831 0.25007045291745894 0.24525100211573247 0.240899868928624 0.23690808969398433 0.23299587150502868 0.22944862977371164 0.22605801787219953 0.22303319788499051 0.21951515871350294 0.21631058660599978 0.21274739882440108 0.20916587451295382 0.2056078424747699 0.2018805987369611 0.1982765396182329 0.19472524534748128 0.19119459803374225 0.18739201484580817 0.1844854282270283 0.1809711866847504 0.17612499686494948 0.17148140222827496 0.16772154728674254 0.16453749002647186 0.1619219750493864 0.15950800913040003 0.15677301338601188 0.15423672584277232 0.1509452491505538 0.14778208935094966 0.14496898325475946 0.14249462488557907 0.14026393065114623 0.13839986398715096 0.13687420452153448 0.135666201404704 0.13489654166265516 0.13467567721278703 0.13511015794110412 0.1359779883838481 0.13750413874767833 0.14014366420618357 0.1443281856753842 0.1450221299567252 0.14273381673742574 0.1428933280822924 0.1426174953105532 0.14209914051198141 0.14276794071842402 0.14431559376290665 0.14447743353188525 0.14511123440101226 0.14276651374159574 0.141315537517627 0.13763192123965134 0.1331168769082012 0.13022939887192012 0.12813251502068718 0.12684147799836346 0.1263496954386243 0.1260079202924826 0.1252524119875941 0.1233777468452257 0.12241819825541879 0.12199993642278191 0.12156466854096053 0.12135797059136887 0.12053148679726282 0.11966267267035918 0.11989143940601264 0.12033449064604608 0.12232152452081131 0.12272191601301845 0.1237114004623253 0.12632963744306974 0.12273003289369064 0.12092901090238872 0.11433028518888816 0.10996585689595895 0.1074970649512162 0.10539466172583423 0.10431565161860054 0.10113422110667755 0.0995374604369529 0.09921113454363917 0.0981413945842473 0.09706878940994844 0.09671570380562919 0.09729227399664259 0.09861305015609059 0.10012909938176368 0.10251349354153798 0.10541058867646338 0.10858925722514219 0.11167892561957393
0.5221139310386004 0.5160303782335706 0.5119762966568656 0.5086999620350685 0.5060469767263837 0.5043393813914575 0.5040406389161045 0.5002644251513629 0.49772722818272824 0.49692875084672583 0.49557011801539064 0.4904569000478775 0.48539914227025893 0.4813849463564031 0.4788340960379693 0.474110054161194 0.47008783373670493 0.46766764695607255 0.4665188590960325 0.4671099482505773 0.47013233244305835 0.4726222870717613 0.4747773128080529 0.4715577043451354 0.4650785792937815 0.453177067852678 0.443540641673751 0.43373255842191305 0.4270684224192525 0.42166181560429034 0.4162945322120619 0.410971037753108 0.40716744195555954 0.4014030979458394 0.39281905094490543 0.38691606477183893 0.38230625280331193 0.37893927419048096 0.37678088742578625 0.37351769197329926 0.3689941672739073 0.36412121416036725 0.3592129296230632 0.3551446419702958 0.35118874314918863 0.34421246451403176 0.3375276546286111 0.32874526006961363 0.32101618676104143 0.3138315932176597 0.30651231470453094 0.29907755707602046 0.2914678426821572 0.28398716152249115 0.27676494841090465 0.26995591436578215 0.26364565217103836 0.2577970680997581 0.2524090548328538 0.2474179698957996 0.24287095893444777 0.23857233959596102 0.23453461785438337 0.23081169574043195 0.22714430902389007 0.22363283622743965 0.22048863085216042 0.2175730526580123 0.21390715987448897 0.21111440630850584 0.20756334029583645 0.20337235683925872 0.19881051377203346 0.1948441679350977 0.19090856750052665 0.18717894405835356 0.1839167087102675 0.17979300829644604 0.17521200864755518 0.17101677436717944 0.16733568982282226 0.16413043216478893 0.16145635271756942 0.15891054478763667 0.15574051115048929 0.1527712362175913 0.149743393061217 0.14692238525917506 0.1443689219539377 0.14206912883929435 0.14007573705431822 0.13836345337488984 0.13702152202957554 0.136017925425651 0.13547143120430316 0.13544546098813554 0.1360764538903973 0.1371986261776629 0.13936499394334365 0.14408244141717605 0.1470346976898227 0.14663493199881494 0.14521692877559333 0.14440215375371687 0.1440774977137761 0.1443878409993029 0.14579050730631593 0.1491611084628567 0.14933203294313346 0.14851053235391254 0.14356709974774498 0.13953651367992256 0.13660544959397963 0.13320132166411547 0.1312565398342382 0.12965708724987748 0.12925086599401778 0.12953705615916009 0.12913554000465688 0.1287573532486821 0.12862426783913963 0.12946721796579122 0.1276627668892543 0.1279834598128915 0.1277613402470861 0.12662988909172582 0.12392052428903842 0.12191438557675838 0.12103235771268431 0.12179438845038693 0.12318197468492095 0.12587787020981117 0.12916983326151715 0.12562825591616567 0.12430604660130948 0.117565697893158 0.11325187467052081 0.11115433343552883 0.10941340153065394 0.10844488674796124 0.1056492606253957 0.10368487455323969 0.10232915212934063 0.1013304798778434 0.10054644178723202 0.10012260454964443 0.10052583584600974 0.10182999445573593 0.10353871016962221 0.10620006506383317 0.10910685921416495 0.11132282065033486 0.11328266840793139
0.5242599565861673 0.5178485982742885 0.5133770062332174 0.5109153396296219 0.5104803584000075 0.5087651469800415 0.5088751512960926 0.5039604597012701 0.4998443245832772 0.4974636270560754 0.4953480171070721 0.4916933973302428 0.4854837290926391 0.48118705357053865 0.47760533044980485 0.47380129217888706 0.47008449146316045 0.46751869736042495 0.4664503118964546 0.4669248274464152 0.4694464164560989 0.474263245623296 0.4748491375472137 0.4704392436792328 0.46197725847904425 0.45118480901442864 0.44219385842381126 0.43386290642970193 0.4272882139155236 0.4217553915375972 0.4181578585640206 0.4131605336869121 0.40765830353460786 0.40020212704916364 0.39346783910053656 0.3885285098838339 0.3842408601657019 0.38154974568408995 0.3807128870291845 0.3763481153067606 0.37371078233719207 0.3681949831262042 0.36274656970164487 0.3590073451373344 0.35478663511479397 0.3482123822536368 0.34158660405293745 0.3338480870115026 0.3263118465637584 0.31917981175721843 0.3113196368953626 0.30345337472317413 0.29569347917107297 0.28775204414030625 0.2801421275449408 0.27304957044058886 0.26649483156909287 0.2604584842924573 0.2548531674050788 0.24983401228159707 0.24533209678613205 0.24088068221401226 0.2365268873583463 0.23235374296740097 0.2285420681711406 0.22491359253286844 0.22156910737250085 0.21870532064124584 0.21547717475012695 0.21228427494125768 0.20849200258024972 0.20410376892858714 0.1997890781547771 0.19559088459248175 0.1914459811491288 0.18767719049227036 0.18359744404130393 0.17916655667340223 0.1747839489002019 0.17078326233384228 0.16705321809360052 0.16383996989641297 0.16128781105488496 0.15826014853346598 0.15510128577805 0.15196381330738537 0.1490891389677841 0.14645081721623512 0.14404521243297047 0.14190817390051894 0.140070094364056 0.13851606603543662 0.13732193040352597 0.13651839270845956 0.13615963244878118 0.13633697732387484 0.13716681507057682 0.1387669206194379 0.14059095849003347 0.1431817027667589 0.14603370548213473 0.14731501504363975 0.1473562716507416 0.1465591109793467 0.14670664167290992 0.1478369102973727 0.14969645786549676 0.15283644187269255 0.1523538518680025 0.1500714170670573 0.14411709484008486 0.13959316286549694 0.13617935808076792 0.1334731384834172 0.1319616138678685 0.13141624888293327 0.1316767455447604 0.13278671771439274 0.13259884877493594 0.13361774920899064 0.13419206923046859 0.13333632161895176 0.13183777694735296 0.1304094093135249 0.1313137078330348 0.12812093525874502 0.125336220160626 0.12322764750466597 0.12249344400367401 0.12303922546170244 0.12406701831255354 0.12722433677881304 0.1310997532737647 0.12793130962306992 0.12604195082111677 0.12033545249688615 0.11674692116793069 0.11552729508723364 0.11398083769602482 0.11267540315539681 0.11087553498155735 0.10797451462017978 0.10608609155900811 0.1048782926476285 0.10445534537694588 0.10356719684067807 0.10376307720498687 0.10490271038985473 0.10673580029438155 0.10950373240614832 0.11244550535477033 0.11415162087810876 0.11652671037202751
