0.3765352744604439 0.3736526347099238 0.3704344194037173 0.3675502389791386 0.3649638234517238 0.3625497208851915 0.359659789876289 0.3572222720127827 0.35426619959519745 0.3519100156330754 0.3501282980393746 0.3490909342735243 0.34761680676749684 0.3452426229975664 0.3430950041017748 0.340721163346776 0.33807249420901486 0.33566629625203914 0.33303163488712106 0.3308454818493239 0.3279922226024495 0.3254284972309154 0.3231023188348403 0.3209669259071142 0.3191260070853237 0.31753925922176157 0.31628473596803686 0.31510282642930026 0.31400351072118765 0.31261562621685646 0.3118511111782 0.3110895877242401 0.3109496265173572 0.31155423719531816 0.3114662335005608 0.311477374447751 0.3123273518227687 0.3134299684258059 0.3148941070704336 0.3162896255878097 0.3172533074320197 0.3185887402310175 0.3207388006619546 0.32334693251745966 0.32596977516477904 0.32887638736444935 0.33243833483191787 0.33699176308197343 0.34196249605606377 0.34467598951884465 0.34625362792962233 0.34782977627427675 0.34977567428310175 0.35306670679744884 0.35674588101535976 0.3614665440787333 0.36725852304728984 0.3755705064643866 0.38709100948927777 0.3909710337281852 0.387829676266478 0.3825874037793136 0.37811806117047386 0.3755376263751061 0.3741216881772275 0.37355975510202294 0.37276379463527165 0.3724995346051632 0.3726700038720777 0.373592526225713 0.37583392996705367 0.3796823694196286 0.38291138407956143 0.37752595544808687 0.36851628396244096 0.3606794809090622 0.35357758276053086 0.3439919247321969 0.33485490942222396 0.3266319822753942 0.3188851935384171 0.31271380960203377 0.3081154006674737 0.3044006453825151 0.301879170953855 0.29867656660875225 0.29541020939791485 0.2919042718832428 0.2882336479303536 0.2836331995978333 0.27909024621219275 0.27483358423967513 0.27077793724975663 0.26647778572652475 0.26249727061575684 0.2589569988021244 0.25526315699497526 0.25183753091889505 0.2496728326716172 0.24885352243288802 0.24640234718721882 0.2403021712916898 0.23320079133366695 0.2265989473638758 0.22026470551027172 0.21517442946928136 0.211268676636545 0.20823381453485768 0.2043215803088667 0.20038741209429606 0.19686183878076963 0.19348992116986888 0.18827318336313326 0.18366559924556086 0.1796352882959484 0.1761069561411825 0.17306022217685033 0.1701110439418303 0.16716763652104055 0.16458521956812866 0.16234574318126252 0.16046559196223353 0.15888133565351123 0.15728580892798116 0.15562173384887634 0.15410969946893185 0.15270480671604053 0.1513227602679359 0.14999481517462404 0.14895814337768615 0.14823968792607567 0.1475892989483731 0.14709472026851214 0.14674822103905036 0.14659132597534955 0.14654542600167408 0.14672029484671298 0.14712392725607887 0.14784350857607928 0.14889790546117376 0.14944226774870642 0.14755820755559823 0.14591028461760946 0.14483511299186413 0.1440857579556393 0.1436704557046163 0.14355656585119417 0.14355476042183427 0.14343429275014014 0.14353206617598704 0.14387340183337152
0.36724966301863154 0.3644102513758786 0.3617236746988384 0.35942343110234826 0.3568436979406002 0.3544699535109421 0.35213563922754676 0.3492703197301932 0.34688608905245544 0.3449153487581426 0.3436835070109174 0.3421362578394711 0.34014265130496635 0.3382093360357595 0.33622420382025575 0.33425994520783897 0.3318809084428682 0.32956992074936853 0.3272940404301229 0.3250739596732152 0.3226141534799885 0.3200509973857783 0.3177116600568505 0.3157173942465356 0.31396825883751256 0.3127730674577966 0.3118968496767097 0.31086081063955745 0.31019123280632527 0.30942612613571036 0.30833947884803015 0.3073846265489616 0.30714667085719677 0.30760790371971347 0.30799612906574064 0.3083318474475798 0.3096000161648067 0.3109930879195298 0.3118532691605603 0.31255872207274255 0.31334050532779534 0.3150251350925903 0.3175138753429455 0.31987960627987755 0.3223436271186013 0.32536636806188524 0.3290124595890828 0.33420749712857484 0.3410258013610496 0.3425344607728901 0.3424414122413045 0.3440426358038478 0.3450724228806738 0.3478292078880272 0.3518503905634699 0.3563549702497338 0.3615362371318002 0.36800899846826823 0.3768131956589021 0.384029609643667 0.38005386311491773 0.37532517076475813 0.3712208420616304 0.3674212489590403 0.3654301923479439 0.3642152004111882 0.36359001462885004 0.36203306257968293 0.3616681250684835 0.3624205877476621 0.365002265237776 0.36450759858010984 0.36320002772115706 0.35959242207584075 0.35442866462731704 0.3488819944343715 0.3433537412162238 0.3351452573083758 0.3266674814896363 0.31900001800257766 0.3120784994730971 0.3065669550727833 0.3025571581228089 0.29957055750713746 0.29781795185596205 0.29384790501454244 0.2906487770205591 0.2871802620025293 0.2829659344839658 0.27793869124226395 0.27314117834098756 0.2688971467892848 0.2647917845486736 0.26061960724435224 0.25666877146174866 0.25294140839616674 0.24919639757409848 0.24587867105254027 0.24342689343206894 0.242206789674595 0.24069410154258739 0.2345204148843297 0.22841196128102928 0.22245325317212306 0.21678667242385027 0.21188737887892317 0.2078308390570003 0.2040154905118916 0.20046960294966892 0.19783134404384303 0.1944561919016947 0.1906140321612279 0.18572854099123426 0.18113732369129076 0.1772048086149293 0.17388575945235485 0.1710128165221712 0.1680995488387725 0.16522078163913012 0.16279184139903827 0.16066846486912104 0.15876861185904503 0.1569150950814913 0.155260872668861 0.15376572505417702 0.15230206792689094 0.1508816893847643 0.14945658142354287 0.14813083997396706 0.1470762082032225 0.14628850327642506 0.1456228281006534 0.14498806320336843 0.1444681731187268 0.14411559464096788 0.14389405088358315 0.14392806347226433 0.14407795777580137 0.14475910347696697 0.14552468372530833 0.1446989886225173 0.14356592361295747 0.14272802690852573 0.14215699724181904 0.1413760764020098 0.14091318590393917 0.14066477459390045 0.14055790658489584 0.1405723209970921 0.14076672028895534 0.14133414015953077
0.3585829483288572 0.3559023228170292 0.3534288982267268 0.35102992099248187 0.3486518235848089 0.3462423795038517 0.34394560187026807 0.3414221079077719 0.33935168687475115 0.33794961479048724 0.33723656671060936 0.33507573559799525 0.33312943254059896 0.33154880959141153 0.32986343741531693 0.32795397579403995 0.3261874649243892 0.32402552122750866 0.32180818772546266 0.31992680295319986 0.31780548548838866 0.3153859840737216 0.31278793097801344 0.31071630184919763 0.309168682798712 0.307952651767423 0.3072016209088947 0.3064370290268265 0.3063180340764893 0.3054085562275143 0.3042633108571338 0.3034827594684902 0.3031589763969443 0.3035153726701925 0.30402384962153606 0.30497690174992803 0.3066056309413161 0.30761429781094984 0.3082406123161463 0.3089621381838554 0.30950764589983376 0.31121282609686807 0.3135230735999146 0.3158955860101448 0.31852024525827255 0.32139586648785895 0.3249383511163803 0.3303221373491131 0.3349061080998293 0.3367251256216621 0.3377032000517449 0.33867112416157 0.3399917097635843 0.3428246155019852 0.3472131802477522 0.3518566962885785 0.35615866972248783 0.36057882126316393 0.3661613548665956 0.370721037344175 0.3698495378828017 0.36585002280474455 0.3618634510981744 0.3589571864660798 0.35699732654287153 0.3552006901147149 0.3540514831445773 0.351869106791706 0.3508132913492142 0.35015260606402043 0.3501716747369813 0.34947030185875305 0.34768116462542403 0.3450235700813541 0.34176807620132366 0.3375585421519173 0.33220298578715696 0.32491423644348955 0.31755355400456436 0.3110476521178257 0.30513113546685283 0.3002472673440653 0.29692233556518755 0.29428145479960893 0.2915849493615597 0.2883131721448421 0.2851912926725796 0.2825435534953218 0.27741403360145545 0.2723808007193625 0.2678183278159851 0.26367383544151873 0.25986629103069064 0.255437721917632 0.2513774671854998 0.24774857753906226 0.24375880840845002 0.2404506091587157 0.2376742455303761 0.2355473905980726 0.2334087797219603 0.22888349435334565 0.22394435011833683 0.21866611878638303 0.21358322260920645 0.20885220593103088 0.20472576550625055 0.20069432501240242 0.19704995863795627 0.19420346908974281 0.19073430177706588 0.18670479888678077 0.1824635604280513 0.17851486628292434 0.1748197558825648 0.17191618922173352 0.16915163355375876 0.16607266937806361 0.16324854653339788 0.16105444589030024 0.15901439409724605 0.15701193209343073 0.15501070667717728 0.1536152789732376 0.15219311503187158 0.15063033645125712 0.14928845233827265 0.1479399189322215 0.1464857053856176 0.14540887505569672 0.14461364738441182 0.1437296492909159 0.14294658385979847 0.1423116043073286 0.14183684754248235 0.1413405100183193 0.1410744047369469 0.1409991569967327 0.14128126804836433 0.14157922886273108 0.14098117663613832 0.14007022671259417 0.1394823542392671 0.13912024947388477 0.13851907725429213 0.13816493143282116 0.13802491142457166 0.13798842166799474 0.1380351198354815 0.13824932839470075 0.13866648479075683
0.35036717669915557 0.34821128805274043 0.3457536399263458 0.34323541684595404 0.34083061945122584 0.33836142743572556 0.3360484814017505 0.33381836349739996 0.33196606267949347 0.3307622911437447 0.32968982465821106 0.3281616043872164 0.3267545337651248 0.32516903685100995 0.32362271267240905 0.3220449347864349 0.32051491877715027 0.31862003186499765 0.316510840914997 0.31477760502099933 0.31302408992007735 0.3113627459045008 0.30816412148195105 0.30597754432347113 0.3045907634561187 0.30337648282931795 0.302580376538978 0.3021315040790777 0.3019336826242714 0.3011376718704783 0.3001680861784996 0.29942287316049826 0.29925656776442516 0.2995141439536743 0.30011578167412273 0.3012340966171162 0.3029359110947059 0.30354385307447107 0.3038722378412023 0.30457303886877374 0.3052261290922909 0.30689174776257716 0.30929450092647776 0.3121273328190909 0.31566607107414574 0.31800706306588955 0.3202380416586674 0.3241787709156162 0.3281522942245139 0.3314863996071134 0.33336922836588395 0.3336799206716302 0.33467250797171444 0.33724606002443175 0.3412493234646225 0.3475732778802758 0.3507953875486404 0.3542565149513521 0.3569221125875874 0.36044627748096403 0.36192685068146735 0.356139089436281 0.35305375164854946 0.351189946756621 0.3494511621322811 0.3465060929433172 0.344130170224275 0.34196924718202804 0.34005484419445037 0.33860520987429266 0.33740504536029636 0.3365346831189741 0.33449043480338053 0.3320661118472151 0.3293666425916491 0.32651182909740134 0.3222530813081637 0.31494207247981826 0.3084179350800501 0.3032398333764253 0.29810470210280277 0.2938273252145068 0.29106404475624015 0.2888105450899975 0.28622601992175106 0.2837714659282683 0.2802195964203007 0.27613145873558376 0.2717253104235457 0.26718668962662107 0.26326153585548656 0.25915501239769895 0.25514816512837696 0.25076406425787834 0.24635516606683455 0.24243063598399103 0.23888999271762865 0.2354686920815481 0.2324604732068428 0.22985047057125238 0.22709650157805483 0.2242029651881953 0.2200263818327541 0.21553375014354587 0.21092485839405486 0.2060562635073614 0.20177167506739271 0.1978116442468002 0.19385103335157763 0.19035854737302307 0.18682629121112415 0.18322814771559814 0.17946052600545348 0.1756514128628615 0.17238187726589757 0.169922272300127 0.16754297853412947 0.16430317981663894 0.1614358195720008 0.15903708415908233 0.15702695250686027 0.15502132473931793 0.15312956115759893 0.15174247788115172 0.15019197540139695 0.1487573005451296 0.14748590119094637 0.1463029752436906 0.144801428868189 0.14365356752767897 0.14283339667842332 0.14184802968418522 0.1409864986935527 0.14018652074563534 0.13949492907971056 0.13884966188500553 0.13835042579284032 0.13802194680938176 0.13791543009522453 0.13794071335110492 0.13740604869919387 0.13680110465467146 0.13628948513613376 0.13607560155909554 0.1357964033765407 0.13551691817712555 0.13556317758183656 0.13572385174760185 0.1359164867751941 0.13609203116209612 0.13625517065560563
0.3418275787163649 0.3405589440117389 0.33907768807921734 0.33635720039333233 0.3336965418132218 0.3309459168100159 0.3286303635090103 0.326595701411302 0.3249496685900095 0.3238092067992599 0.32289104781555134 0.32170353378640193 0.3211394797566013 0.3192299528652998 0.3177855451462507 0.3166094897377119 0.31485164533610266 0.31282809870397454 0.31122497696721685 0.30968828553022903 0.30804284798070297 0.3061781632049478 0.3033574757002444 0.3014060254332101 0.30018829542612263 0.29903142538725147 0.2983386979270126 0.29801066735597426 0.2972145035808532 0.2964248978165069 0.29581232476856456 0.2953991535901828 0.29533996380476496 0.29584684935916067 0.29657081622935744 0.29732807828458274 0.2985262869774222 0.2991200665609396 0.2993010538032529 0.29984554881501946 0.300904758143095 0.3025708997963243 0.3049634166911598 0.3084846024286253 0.3135807189507875 0.3143959720899681 0.3154007125119594 0.31825714040211417 0.3218093638769616 0.3259316620825577 0.3295580715090701 0.32917417056813164 0.3291476227172851 0.33066952208609923 0.3334864559967338 0.3376525104921447 0.3413470089484581 0.34533033488461284 0.34653599060782503 0.3473324773396604 0.347337981577699 0.3457154738579278 0.34450706592736774 0.34342973949676703 0.3418292305584915 0.3378361085653872 0.3345808920317895 0.3320117544779198 0.3297751437878174 0.32814040315211546 0.3263554133122584 0.32447365255476857 0.32258139019645166 0.32078714797477226 0.318187834005567 0.3144415623133492 0.31036528854795303 0.30457002310995573 0.2992005488181879 0.29480746714928924 0.29067048711736737 0.2874053137499745 0.28487947170062655 0.2830778632169412 0.28168263418091255 0.2786206582842013 0.274951894157496 0.2702755242616653 0.2657378656400246 0.26242245966574 0.25952867743906416 0.25513489791800087 0.2504795979513674 0.2460580814811463 0.24168047681935487 0.23771383095508483 0.23411597123013053 0.23064006787444785 0.22759280094848608 0.22464872120921575 0.2218363694099953 0.21943315092100116 0.21634758291972125 0.2122925705870344 0.20755206873008292 0.2029161378309242 0.19876605948963785 0.19490541809146084 0.19075800744055374 0.18700203298468826 0.18366009304966804 0.18027449187475658 0.17667143932079654 0.1730878654736282 0.1699939453433887 0.1673659610669275 0.16488274529961366 0.16214117614233298 0.15956388878291028 0.15716697096906654 0.15509243888328178 0.15315568112141562 0.15125856778927427 0.1495906043976703 0.1481009721005457 0.14673667758099593 0.1454601512337318 0.14416651103672792 0.1428882552601419 0.14174812137907228 0.1408532493316173 0.1400695173084741 0.13920222279812358 0.13836258068023377 0.13745455570679746 0.13654902940694447 0.13581820590752744 0.13524273789654842 0.1348661737320564 0.1345762160081089 0.1342857635462444 0.1336956759286402 0.1332515780905348 0.13306016449208463 0.1330085797783066 0.1330885331645069 0.13335337634958802 0.1338637189179839 0.13431540684327514 0.1342805386340889 0.13403782928300875
0.3332799738469709 0.3323467993252873 0.33187824092852314 0.32987758780593435 0.3268430937549368 0.3240885139841916 0.321602105594349 0.31966005201175657 0.3181761243858124 0.3169639766946268 0.3160740649517571 0.31523608777263146 0.3144627097541706 0.31335557643757506 0.3119959352242111 0.3105834664426882 0.30903578845329377 0.307329301522299 0.30597756374499674 0.30459634342036124 0.3031325685458797 0.30073918854740744 0.29859865547855696 0.2970044660795194 0.2959795274091774 0.2949290176898528 0.294062397400125 0.2934883858144782 0.2926864967781742 0.2921887256953516 0.292091232074171 0.29173317333234733 0.2915822184179769 0.29196255085934253 0.2925617400608511 0.29364373645180636 0.2941087541148039 0.2945778900830805 0.2949302020996939 0.2954138619112035 0.296409560700299 0.2981412061225566 0.30054576415983103 0.3041712534719088 0.3075335342708607 0.30933940004003685 0.31051918273658735 0.31272243112014536 0.3159307937413353 0.31986878950084296 0.3242382127333356 0.3231624726943742 0.32298480545380104 0.3238911463290357 0.32546638235583164 0.3279645694852843 0.3307364545362858 0.3333449950546461 0.33513568772927715 0.33563720264585606 0.33602837204115943 0.33613483296356056 0.3360186807980282 0.3347317342985 0.33233936038490286 0.32860144606617864 0.3254713077043352 0.3228328654611202 0.32037992076352473 0.31800067201607024 0.31583535861937295 0.31372129181120934 0.31170132660093747 0.309624647742048 0.3073171323498644 0.30401080616236215 0.30006532785631124 0.29531524412167787 0.290509752229371 0.2863682306542694 0.2828261484558783 0.28024538350856 0.27814512058285273 0.2769444087123247 0.27598329100475233 0.27213535078568757 0.26795772550121033 0.26383297365754127 0.2599154018685403 0.2568639265690289 0.254132606492213 0.2503472601062723 0.24601111184449612 0.24160001808944617 0.23741212569808615 0.2332270126339982 0.22942693396156952 0.22593288625753244 0.22279090011116248 0.21986156203956808 0.2170562280294665 0.21450073112022677 0.21159343471498016 0.20775044022134925 0.2033805196046464 0.19948446050120214 0.19566150970496585 0.19177277454729308 0.18784904322144455 0.18414817396659566 0.18081602979827255 0.17755889577287312 0.17414999591809766 0.17078371276136387 0.16786186691567886 0.16518806392261537 0.16266105202638595 0.1600802366697351 0.15765908177751695 0.1555221731891535 0.15343626840007624 0.15139838345003198 0.14948234612151695 0.14776643055295935 0.14624425597588442 0.14474174644317955 0.14338453593634312 0.14218540232924812 0.14107993414284284 0.1400254638979844 0.13926495393026506 0.13853701084271583 0.13785275933991878 0.1367868529726269 0.13556244880433024 0.13451091481784727 0.13357372534169376 0.13269550023176094 0.13204421716380219 0.13154476260933176 0.1311757073405212 0.1307788209377807 0.13048674604825453 0.13042986817821822 0.13054252464124055 0.13076066965804986 0.1313104714138394 0.13219628574380687 0.13251257230128996 0.13238182545327964 0.13199269937750704
0.3247486817322882 0.3237868655575618 0.32326396150131986 0.3221141639507526 0.31959225356259713 0.31725303819757406 0.31505714680625674 0.31322617997094765 0.31175690984054666 0.3105475941460829 0.30954629286568214 0.3088381169269725 0.30787092741366806 0.3072277174478172 0.30625390045262 0.3049164247229515 0.30369643226903503 0.30199578227904916 0.30043292504078456 0.29893634953801107 0.29739383200993613 0.2957676338375523 0.2942917897114751 0.29280832272485996 0.29184568765429936 0.2910796048836861 0.2899375235907483 0.28925060241958955 0.2885082763436895 0.28820711599853605 0.2882734337590501 0.2881633020996014 0.2879871404560008 0.28831061887570975 0.2888102996789644 0.2894604863807341 0.2900055430872498 0.29059458999261994 0.2910249335853756 0.29125388655226336 0.2920165207449283 0.29347846141061434 0.29578389404306676 0.2989211612521642 0.30229237325023994 0.30407304931766843 0.30532539605742004 0.3069587933632724 0.3095943324487288 0.31275962782666245 0.31560451522889943 0.3163148860434773 0.3162834891523107 0.3167902772090252 0.31782461830463027 0.3192865605731058 0.3211545675999968 0.32309306018569534 0.3245385050423699 0.3256949263236188 0.3270698657667115 0.32813009726171544 0.32815348227566055 0.3257027029709935 0.3224745204169454 0.31921459588653994 0.31640375975729695 0.3140935805394572 0.3116944469292174 0.3090037655378926 0.30656123754487896 0.30407903220479204 0.30189135824924124 0.2993675370480897 0.29633096570768447 0.29369663926525563 0.29142582487934626 0.28667210496228396 0.2823913982691282 0.2786815350660215 0.2755336844995936 0.27282810459248685 0.27110905752658493 0.27084412543977815 0.26784653967603866 0.264434326474638 0.26102009379508617 0.2575891721468233 0.2544142605291434 0.25156235457985093 0.24885622424577122 0.24574324826696586 0.24220419217713132 0.237937380178225 0.23329563828379649 0.22906495430500912 0.22517788218797224 0.22161718690196291 0.21845138772309663 0.21555647655662016 0.21279220795160012 0.21010715544633493 0.20682140849578015 0.20306733740111388 0.19934772520548114 0.19595257727664028 0.19245235145610656 0.18891893860690875 0.1851581944387358 0.18166033702552448 0.17844137315057132 0.17514966708713858 0.17182819001560598 0.16866698974936373 0.16591138791266552 0.16342824628447555 0.16120551122936838 0.158420866245316 0.1560134356958815 0.15394076150238256 0.1520894200673371 0.15002587371231155 0.14811480859140094 0.14631101082331308 0.14470257498192482 0.14306275076563282 0.1417295326918061 0.14058268363213167 0.13945170965627618 0.1384607067987582 0.1377838603915857 0.13724822016912316 0.13658774486623135 0.13520172577297881 0.13394070714535844 0.13262874348934367 0.13148580499896073 0.13036652401920013 0.12952343461500304 0.1288826196998503 0.12842184654040872 0.12810264324851658 0.1279620265223788 0.1280793193972392 0.12826273347754666 0.1285560447047141 0.12930548564578134 0.13019913184340123 0.13059439906097847 0.13056178731357485 0.13019817344368095
0.3160714190358701 0.3152978834697449 0.31476152785675077 0.3140289853192955 0.31266614013124205 0.310773083815804 0.30892042111514934 0.307167631678953 0.3055997404282527 0.3043385377459084 0.30327761781736384 0.3024044373720575 0.3016636972422577 0.30119008734648944 0.30055756184140364 0.29922643164245477 0.2980704003655284 0.2968899057033484 0.2954594931076379 0.2941070577329227 0.2926707970373431 0.29142085857106215 0.29020449591240854 0.2889845394244854 0.2880470062215079 0.2870740662346555 0.2859814305234532 0.2851443549251179 0.2844627947408645 0.2840162620001868 0.28401491639826937 0.2840963206249365 0.2841723137306345 0.28447403741289734 0.28505878324505174 0.285799580774154 0.2862654421602357 0.28703149996452365 0.2877851959056607 0.2872520141669743 0.2874521809973536 0.2885893672877014 0.29077075201453334 0.2938138299786952 0.2966553082254684 0.2982952661156435 0.2996371863912009 0.30104573547558805 0.30345470887294873 0.30614015511228587 0.30788509481876514 0.3087977828358999 0.30971622418189054 0.31014163077514073 0.31056542584864993 0.3113996152928845 0.3128877930837832 0.3146212699411634 0.3155867164794667 0.31701414012514983 0.3191152927786836 0.3209628482150493 0.3214517733151323 0.31802089201855793 0.3136437694917947 0.3102396171765891 0.30730576378271945 0.3050560888313414 0.30238836795125834 0.2998504435458733 0.29720020995572044 0.2948003927673758 0.2921586283386081 0.28928406203890344 0.28655048179253223 0.2840660786193236 0.28171755732963416 0.2782689191099849 0.2747868341748059 0.27126000870228256 0.2682047044043305 0.26556295729978097 0.2636695873994443 0.26249208498398224 0.26045661487769023 0.257478034258444 0.2546633198987103 0.25224671537718085 0.24925712218109353 0.24684281984969939 0.24371213446172957 0.2410818083302995 0.2384703814181021 0.23429841267537846 0.22962157005877373 0.22540756611816812 0.2214962743418049 0.2179765647671939 0.2147875244287052 0.21202201598245318 0.20912072711177437 0.20622506800392953 0.2027812271704173 0.1992046597142263 0.19590472227251415 0.19280382480563663 0.18944090297954688 0.18608548677348297 0.18273470857787152 0.179428668690604 0.17659437183381824 0.17320093007193554 0.16991217352711907 0.1667387910808431 0.16403177231804095 0.1615902550267331 0.15921320842902664 0.15681970680775015 0.15478092472322666 0.15277228364774506 0.1509394281211493 0.14913978806204076 0.14709048041780426 0.14488268960612322 0.1430348326511372 0.1414667316434687 0.14034991742990846 0.13905620870052776 0.13786125332736984 0.13698548201400812 0.13633465278445692 0.13558982745746087 0.13455707476526158 0.13327124811606578 0.13189008998963098 0.13061282389074108 0.12939541075107722 0.1281496581624891 0.12719445693226727 0.1264771381376829 0.12599645347237953 0.12569267115141403 0.12564301632778838 0.12579050523151217 0.12611437184828897 0.12639881830729088 0.12715095967681714 0.1282875149065324 0.12925810238600385 0.12921257611811066 0.12872915824623535
0.30787589474092736 0.3073745756608781 0.3070586684080778 0.3068906726281605 0.3061528755919696 0.3044974706406874 0.3030252211834221 0.3014202255445695 0.29999154563795705 0.29863689975030033 0.2974631708672105 0.29660955412057605 0.29599071975119573 0.29532474397771524 0.2944824929879944 0.2934729169757446 0.29262298290245836 0.29169035368392965 0.2909522347578162 0.2900498452046379 0.28872121739279527 0.28767392744194237 0.28684317372389234 0.28582797905491353 0.28441371944648053 0.2831429785729635 0.28205782797423423 0.2811846971881358 0.280557656506633 0.27995511975826914 0.2797763371004894 0.27999544401982784 0.2802209400113509 0.2809338161338941 0.2815941002613308 0.28236343719891005 0.2826572249063582 0.2834130526822442 0.2836747720897031 0.2826620562532696 0.28255110852679716 0.2835267994283297 0.28544584226032793 0.28800372928822837 0.29049957925293424 0.2925225933960606 0.29384434270628634 0.29527025987614125 0.29717758038316094 0.29917381490534806 0.3008646472656169 0.30219228121218245 0.3029426180838302 0.3035492205669249 0.30378844086739826 0.30411699866796466 0.30522069809386987 0.30650372437659734 0.3074268278331832 0.3088886573387297 0.31072715911683463 0.31174652832003397 0.3108528743107189 0.3083949711009673 0.30479023302555025 0.3015104947848552 0.29865549564213595 0.2956544136803989 0.2929211296218996 0.2905610753753598 0.28844960963546995 0.28624087450304786 0.2830342691363877 0.2801709334809358 0.2776232307985679 0.27513282595237054 0.27260675006371365 0.27003279354748433 0.2669778405264022 0.26390339735769236 0.2611542331368176 0.2587145402837693 0.25670431497472057 0.255231329863434 0.25362726638287736 0.2513530109358583 0.2489904754957415 0.24665987645935258 0.24424909180555596 0.2417850283509201 0.23897115443541192 0.23626975008358592 0.23366180872766318 0.23005987114029608 0.22600319734807114 0.22198252211248465 0.2179779215968182 0.21451477245938544 0.2115948836231073 0.20901723074838302 0.20608258734907656 0.2028498540670101 0.19976957169141282 0.19611134317818896 0.19265759635937252 0.18969511508729028 0.18657979661884844 0.18328380550772747 0.18032409028246185 0.17727807355372374 0.17431519238733023 0.17107193248892952 0.16787725747946303 0.16493088299068778 0.16228119735260668 0.1596949562101789 0.1574018504270726 0.15547307152745438 0.15396326866830676 0.15194045362300168 0.14974350953531568 0.1477767105681461 0.14562517164369762 0.1434546296809229 0.14131752004736914 0.13976649426508334 0.1386681376754999 0.13731004690590312 0.13642197817138077 0.1358174906139377 0.13528196526213535 0.13359910444238512 0.13208887790601234 0.1307933445553295 0.12954617406895622 0.12836872154690349 0.1271614011307056 0.12599627935382932 0.12501490732548157 0.1242559958369642 0.12375772494432834 0.1234549372884585 0.12341217961309332 0.12355689219112496 0.12384819296420092 0.12426548806507416 0.12496882851758288 0.12609792731402095 0.127280560266328 0.1273031027624634 0.12668990306434197
0.30033420451271337 0.30009647065298395 0.30004013430354226 0.2998177833271371 0.29951188163323383 0.29892355483556926 0.2976687736759177 0.29633132760923286 0.29515727395614477 0.2934434597819273 0.2920051600340591 0.29130508889173823 0.29036377227465393 0.2898176466159685 0.28913059698418164 0.2883975072840184 0.2877453510178031 0.2870225726816798 0.28636802235833225 0.28576674232317123 0.2851557052955989 0.2848746161811703 0.2844007265707018 0.2830531077895834 0.28139423044684814 0.2795756172786243 0.2782351264070499 0.2775171680490428 0.2770456081065911 0.2760135416277643 0.2757273616625791 0.2759838421544929 0.27649128789161337 0.27690669222173675 0.2774165457248376 0.2777457598223417 0.27768688005970754 0.2776847748808087 0.27763314692968244 0.2776528323077573 0.2776581505734766 0.27856522997149097 0.2801114754223707 0.2820909734701964 0.28429036756827447 0.28632048796251364 0.2880711676660847 0.28986975629077677 0.2920475572050282 0.29397624927930516 0.29449736293542933 0.29561010695420054 0.2961567703585158 0.29664569921269784 0.2969735279882233 0.29699963870573065 0.2977702724236711 0.29872659767015913 0.2999047495664438 0.30186098782877235 0.30278220660764715 0.30256046457094693 0.30102742806930427 0.2985774039710107 0.29573656466146847 0.2928080271885922 0.28979457210397236 0.28692298132915256 0.2842581785569564 0.2819848147501289 0.27976389515624217 0.27739965448212045 0.27463483325925936 0.27208830802990286 0.2697264896143138 0.26720060099795656 0.26451893423962014 0.2618946636244702 0.25924470914757963 0.2568067461653333 0.2546474938407669 0.2523350790443454 0.25032311606416974 0.24864518795163637 0.24710266865740294 0.24533758025024863 0.24336445274804225 0.24161777473173274 0.23986980133277655 0.2375494902441295 0.23504395550361248 0.2322713412611531 0.22950581475659998 0.22613425884920035 0.2224913815080631 0.21825864408476123 0.21443181299947528 0.21125988206950447 0.20898341977920873 0.20683104759045126 0.20315278984317467 0.19968006866262972 0.19644488121848594 0.1930805126817423 0.18980097461939152 0.18706172005059862 0.1841685190676763 0.1808158710845296 0.1781181149932306 0.17579715866986673 0.1727979647630439 0.1693549068288118 0.16605468159809364 0.1632985096669743 0.1607141828622914 0.15812992186254698 0.15605540963671793 0.15447807786420795 0.1535038529805757 0.15127736498293523 0.14872576469573345 0.14637877719531125 0.14393913590501703 0.1416352409227416 0.13962586626446297 0.13801072348722385 0.1367152630569783 0.13561006962077338 0.13489585680789185 0.1343417028650788 0.13339403239749026 0.131687459541247 0.13002245705814536 0.12863895838259426 0.127322316811649 0.12626360537373957 0.12503854150643187 0.1238741659339506 0.12298375004167408 0.12225022750502881 0.12165962490923325 0.12131667497652078 0.12129831332331588 0.1215736603386381 0.12196977230689195 0.12257121536150778 0.12318419104918289 0.12375587596832471 0.12441688225808724 0.12469288141920933 0.1245430867019441
0.29320172954241736 0.2932989986690646 0.2935358860489007 0.2936264179465212 0.2936861212460616 0.2937518305667852 0.29342050786406476 0.29260847287501196 0.2901976254891456 0.28805021762820415 0.28653591767164516 0.2856575461038702 0.28505705385088553 0.2847193976770657 0.28443509026435804 0.284005131508308 0.2835599960723102 0.282884646699999 0.2823001318961601 0.2818752771558412 0.2820776332628507 0.2827974464264134 0.2825310166195623 0.2806674218361988 0.2785499299240594 0.2763129473591842 0.274515387406943 0.2734972665261958 0.27262737690507544 0.27196393902283694 0.271811919434201 0.2722373623308687 0.2729483630913558 0.27299324147504334 0.2731033209024889 0.27329702833250125 0.2731385360916853 0.27279029002754107 0.27252020344785083 0.2725046040254136 0.27276540722235243 0.27356916498984 0.2746903129710566 0.27629498351835524 0.27823874460625153 0.2804734803127116 0.2828079970693191 0.2844397862689339 0.2868555365331033 0.2885470700033596 0.28812962392935315 0.28844465419252946 0.2888275164588047 0.2893176652614495 0.28988396292854685 0.28998937939164365 0.29065297226704034 0.2913581713877146 0.29283563644851773 0.2955553861072096 0.29565183513520643 0.29387358353450826 0.2917797862280743 0.28921504266673104 0.2865872308416939 0.28403456255588216 0.2813057420715795 0.2787079443488102 0.2762860400368213 0.2739598494105124 0.2716837318590418 0.2692822793137073 0.2668896864003557 0.2647993103498052 0.2626970551517073 0.26012614218635244 0.2572342778072962 0.2545897188576647 0.2522116174039263 0.25022654353075446 0.2486240577326689 0.2460834493484561 0.2442635067082777 0.24254214537645993 0.24112230371889143 0.2396930087047059 0.23799434049392287 0.2365864319556201 0.235160983443992 0.23386167881101205 0.23168231311758147 0.2288524977933338 0.22576888255133187 0.22251542602730984 0.21893580112235989 0.21461030422328073 0.2108226894278581 0.20767043427796236 0.2059263492228069 0.2046677069718414 0.20078069735932172 0.19722821756534323 0.19364475513616342 0.19060130602545058 0.18740672212397036 0.18426584675531188 0.18130963776273679 0.17836040359248378 0.17622071237258471 0.1745068048731088 0.17185153812122023 0.16812490490739107 0.16448390671295324 0.16155401827262914 0.15902930372926619 0.15668820832562755 0.1548102804038972 0.15361919678498698 0.15302442982843723 0.15043734395367242 0.14795335749640032 0.1455266272749565 0.14264497736954637 0.1400562458703865 0.13802223221422116 0.1363935216116541 0.13506887014907973 0.13403861278497953 0.13335569030425096 0.13240154505005516 0.13092042634437917 0.1294268895135027 0.12801448042755864 0.1266482101887552 0.12524825412743462 0.12407691593484349 0.12294241527994085 0.12210725232715121 0.12134623058621162 0.12059922510709066 0.11976679798008893 0.1193220981610266 0.11936570166036546 0.11998355153128024 0.12052435426417361 0.12140870384348734 0.1218699422445588 0.12195973855715776 0.12235544284680526 0.12241986530401336 0.1225411632625242
0.28659449357456085 0.28699260634765106 0.2879116682410121 0.28849798044074915 0.28831053383001276 0.28860723727484616 0.2899325657085196 0.2894787697528664 0.28541531464163855 0.28261356037662094 0.281134568258131 0.28049823336340696 0.2802235555500615 0.2800202860378223 0.2799109487050353 0.28016558450378215 0.27966975535537747 0.27873897096449196 0.27801596541942886 0.2778316329532785 0.27873947207874195 0.28017910786294903 0.28151377613048834 0.2777914467278399 0.2750689979392824 0.27251995539158413 0.27068177349490974 0.2693122584018008 0.26847114340119804 0.26804224155792566 0.267924649951086 0.26839486521106726 0.26888897127368694 0.2690914066884425 0.2693669231471452 0.269728711765436 0.26955348879537205 0.2687498125853453 0.26818440827908857 0.26799274178514054 0.2681204214479866 0.26859027701964144 0.26945310370649295 0.2708301933889713 0.27245447362531977 0.27438305243616484 0.2764395153783407 0.2779422683524724 0.27996901327476836 0.28119449715019346 0.28129650963752945 0.2816701563155211 0.2820452378530861 0.2824746554213529 0.28267356152443873 0.2829005848255912 0.28347173888500715 0.28400014044080996 0.2851331447384826 0.2862254721240621 0.28550606951533936 0.2842569861705631 0.28258123424552545 0.2804695690102633 0.27809030847582905 0.2759066938349827 0.27358156838401493 0.2713813308044954 0.2692710192819258 0.2671466911902495 0.2647350763049356 0.26233728524686334 0.25994187452449424 0.2575202394312774 0.25530545504775265 0.25296331941406547 0.25033671434751975 0.2478765365944284 0.24570964874359533 0.24374919128849082 0.24200941051959204 0.24017849644528277 0.23813510509586103 0.23630667308646117 0.235120305739903 0.23385454393814328 0.2325381931309267 0.23130275402839498 0.2303154851534134 0.22955294191640319 0.22819014267948276 0.2254123939983685 0.2222396302376934 0.21915039784906962 0.21573694868728494 0.21111774968112587 0.2071802357127205 0.20376841545275579 0.20151830583743047 0.20079721174337944 0.19730827499687292 0.19348125571898392 0.19074299575537515 0.18793512585926472 0.18491363788942894 0.18141705690942725 0.17847423234362056 0.17594304864971005 0.1740183452205635 0.17235132647925194 0.1701180226696448 0.16684832637198913 0.1630887779957908 0.1600325233174525 0.15748557285274692 0.15522433534987604 0.15341472656553642 0.1518136993207679 0.15036820292767783 0.14839081685645583 0.14625674427749846 0.14398090168669658 0.14114761793388877 0.1385472407387196 0.13653374578478794 0.1349724843262838 0.1337051009186258 0.1327166944057636 0.1316061522390402 0.13038530911049062 0.12899911279734969 0.12729657176482229 0.12576840770033199 0.12438422615099635 0.12317590550553068 0.12206940303835528 0.12108102581602233 0.12068293930416298 0.12034985517555019 0.11895882917268753 0.11787240343178626 0.1173477484933829 0.1173727067749821 0.11800288666250477 0.11927337170198046 0.12077560318567163 0.12058198786850746 0.12041082480627044 0.12055585417923 0.12060037281993903 0.1208812117273843
0.28010293351992865 0.2805967344691916 0.2815945375904633 0.282871449019957 0.28301561031372086 0.28303445098749286 0.2841097205500334 0.28289000623995003 0.2795738580292564 0.27706072083107114 0.2757144257570719 0.27526131106056734 0.2748622370370506 0.27478240577571056 0.2749799848087048 0.2759010969103574 0.27558948900490027 0.2743548731248147 0.2733834416644185 0.27320490285814686 0.274632410039572 0.276713793937672 0.2766584598216336 0.2736406891757745 0.2705993844774822 0.2684481051388803 0.2666793531724986 0.2655012497757171 0.2647537413263526 0.26438358069479895 0.2642708875822473 0.26424733167416675 0.26450391198113793 0.26494051716091466 0.26559309771516476 0.2664229105672775 0.2663381307468974 0.26510110477366994 0.26431519729304315 0.263891486256525 0.263749871610383 0.26394950649935456 0.2645506434637005 0.26555490285491234 0.26683836702791064 0.2683941640748541 0.26998048300998656 0.2713842981277374 0.2729263024353378 0.27434303463751103 0.2751162425353583 0.27596780842354734 0.27644270789004766 0.27625044141473 0.2760466790121996 0.2760264635319649 0.27628987457031573 0.27647619908446014 0.2770312475468465 0.2765185467090733 0.27576173485491495 0.2748323733682221 0.27380124161133695 0.27235456498590566 0.2701453891960307 0.26839440635385786 0.26662071040036267 0.2647792626085475 0.2631198254421652 0.26138984369908497 0.25891748420678673 0.25638353128422714 0.25378485253385247 0.25087843417732925 0.24837029475448225 0.246075581349004 0.24390899989760298 0.24163876577113821 0.2395709065103052 0.23774724140373027 0.23620086083299857 0.2350432396403236 0.23252914182598142 0.2305157522331104 0.2293804316885605 0.22832531469577996 0.22707475133746838 0.22611828471707066 0.225480334975913 0.22475377639771651 0.2236505704013112 0.22190995934650848 0.21874538281289294 0.21608423938565222 0.2119283164873977 0.20743065652651965 0.20340388929017786 0.19968201305611635 0.19676650191224854 0.1946573649882901 0.19225866928404436 0.18930673497261027 0.18691568112714915 0.1845889119951135 0.18131152065029688 0.17820803883853437 0.17551386018807966 0.1733652612643346 0.17152210737928625 0.16960048836248748 0.16749599218850744 0.16465954369909355 0.1616324048049757 0.1587359046348462 0.1562015693640071 0.15412614040405323 0.1521299511856415 0.15045064275362666 0.14882617624184163 0.14642910796354894 0.14410263937515494 0.1416389537450555 0.13920101286108194 0.13695492325444994 0.13512910997356115 0.133714242740898 0.13241252928632424 0.13124341852633273 0.13015264158422876 0.12882729725230263 0.12728360650008116 0.12552130462279665 0.12384469860399343 0.12237110329250292 0.12121497630875251 0.12003247458399077 0.11910350353480796 0.11890053154350684 0.1190602004045783 0.11749462761260265 0.11590970392714799 0.1152662144855641 0.11532896420933322 0.11582963232057009 0.11782020886649351 0.12044200650212676 0.11916427439788199 0.11894220293917146 0.11930735927757706 0.11919649558765805 0.11942371691506841
0.27395667069148444 0.27445094704058787 0.2747835864897401 0.27552233060024867 0.27644893536660836 0.27677357503857525 0.27635098293647836 0.2754677278382113 0.27366739307867083 0.2714817587423079 0.2702103119849726 0.2696095831628862 0.26932495754144303 0.26947425231398786 0.26972203583630167 0.27051038504330666 0.2706123460584079 0.2693255418415988 0.26842757091315855 0.2681882568309832 0.26903246903288874 0.27013761911450623 0.2703970292224287 0.2681481982647998 0.26582915479781466 0.2643377388856366 0.2629454259565166 0.26216020647151533 0.2613030012922451 0.260687502053695 0.2605078605063857 0.2603414084942811 0.2604329114450234 0.26109811470179933 0.26183500090195044 0.26314291644064813 0.26284208128624126 0.26145470692713124 0.2607088709985918 0.259863688236064 0.25945038570823636 0.2596331785492165 0.2599977416454698 0.2607976231449503 0.26190617036314284 0.26279970753396953 0.26408232281814453 0.2656241141065538 0.26704643711173487 0.2688518052625828 0.2699325407851958 0.2705752265500641 0.2710721311905262 0.2707539213223785 0.2701366301281717 0.2696817351481045 0.2697106820527166 0.2687753061840915 0.2683428276722638 0.26786437727827594 0.26712652715827173 0.26620225643436557 0.2652720750518069 0.26412762555309455 0.26247826330454943 0.26111477902225366 0.2597728348862086 0.25871236253629587 0.2579221473005501 0.25662998351217636 0.25376839091025233 0.25062817698456963 0.24772444880609643 0.24475572299661125 0.24208588629376315 0.2398219859814555 0.23791053566174306 0.23599316680998428 0.23393858551571592 0.23216565473402334 0.2305705536271188 0.22894009062980616 0.22682693487905978 0.2250426354442773 0.2239275701855515 0.22283895468421472 0.22182217062133056 0.2210508048852225 0.22064988282170708 0.2193547652511828 0.2182899286280625 0.21658541133774964 0.2144359196224468 0.2125099732666458 0.20812200197468636 0.20327437213221242 0.19901234049933306 0.19516876771000788 0.19202930094693801 0.18964290845654178 0.18752013927860972 0.18541755635403456 0.18319219272385254 0.180552755387816 0.17769916836851896 0.17512134782267152 0.1727246260888543 0.17070741671723377 0.16887274361645335 0.16689765593136333 0.16484760752635208 0.16246482465055098 0.15976084182739161 0.157329474181958 0.15505221736082533 0.15314477374568766 0.15101951985850282 0.14914211128190388 0.14718468736312043 0.14500145740710052 0.1422944463340028 0.1398310793324931 0.13752109581355204 0.1353429892433908 0.1335799030144364 0.13228191752551313 0.13138127885971007 0.1301944585287987 0.12885177687953736 0.12744798258606738 0.12593204516623785 0.12408789690221837 0.12225886066203406 0.12061525346961162 0.11921621431431806 0.11802953289220373 0.11710313330944057 0.11674346858260028 0.1161780340495839 0.11504564349185586 0.11363064559441045 0.11293586828147427 0.11275786585480428 0.11319091847637101 0.11457132174770077 0.1159479011026846 0.11663990721939543 0.11754182384074177 0.11845165639929515 0.11871406790630641 0.11865854889641339
0.2676951402589652 0.2679301060111043 0.26838960557735886 0.2689869331649609 0.269554570250525 0.26956810945871473 0.26905987994201064 0.26866607185448355 0.26748954214387444 0.26578156586084484 0.264704830637473 0.26412101315883024 0.26394184892226663 0.26397719811362363 0.2640770096506442 0.2643321123637659 0.2645122004627376 0.264250630150744 0.26330017156045915 0.26304983771011675 0.2632928940899021 0.26354004999430897 0.2633728295999053 0.26214219355653584 0.26099293535758256 0.2602797630679249 0.2592738445078899 0.2583157082992142 0.25768719517926575 0.25699474739199296 0.25647422625807015 0.25630958276126325 0.25647130216907316 0.2573546492318746 0.257818120944009 0.2582610654173884 0.2579981557015256 0.25729159145859826 0.25672742245123653 0.25577947840482235 0.2553329271939722 0.2554712127147673 0.25581498517070317 0.25634222225128295 0.2571810133612658 0.25760106073115197 0.25852883582090347 0.2598049715282068 0.2613984096822252 0.26329869993978966 0.2641238337682051 0.2647760517438159 0.26467338226462056 0.2642967311857248 0.2634806259519615 0.2628045631000678 0.262342242719047 0.2613764492142612 0.26071539855746945 0.26005999817283476 0.2592903988579296 0.258465383638827 0.2575683303477696 0.2566529985734062 0.2553092708311195 0.25419504305775553 0.2532025328118058 0.25280289581383614 0.2534344691837209 0.25297969737551784 0.24890041230791257 0.24532563889944453 0.2421278207652706 0.23896400928567926 0.23623292356879685 0.23396509073922475 0.23223223508137258 0.23090370976957855 0.22882916350254337 0.22667555159016967 0.22495958896112062 0.2233056782683016 0.2214258596358697 0.2197542546241011 0.2185960947921641 0.2176939690512683 0.21682265054119676 0.21583079045138687 0.2148190903174486 0.2137818303429803 0.21263883508765932 0.2108552891990879 0.20930395159978724 0.20625837143441042 0.20285523716037138 0.19850804594610696 0.19425766724934404 0.1902917212259461 0.18731868865310858 0.18502380316902312 0.18303356894914932 0.1812813831519241 0.17916995661561622 0.1766929904256011 0.1742664104994574 0.17222517763418652 0.17027191028814753 0.16830102405475206 0.16637041507097472 0.16445575551567207 0.162701264240253 0.16075617171508597 0.15828268739287976 0.1559178728612984 0.15384265511308667 0.15195036476497573 0.14998942836396534 0.1480231764535878 0.14568206707781767 0.1437183591653738 0.14066975665802428 0.1383033944593193 0.13587280750609693 0.1337064892471455 0.1320799983828671 0.13092779352418263 0.13058825132277466 0.1294589982272988 0.12775952079692288 0.1261443113257061 0.12489007584825759 0.12306878165473488 0.12097672527908371 0.1192104216806546 0.1175350603575463 0.11619582036183035 0.11516163520658276 0.11416580597599109 0.11312543507590234 0.11208918279959727 0.11113937542176511 0.11050376838276284 0.11015669103844293 0.11033252015553037 0.11105704315185325 0.11214858116064211 0.11364340877339241 0.11559672396886407 0.1176535278212408 0.11950374013223536 0.11855635075063418
0.2614841128631025 0.26173770628551984 0.26249914766823496 0.26303937109881703 0.2630607265796041 0.2632655590556076 0.2626735324169439 0.26210575746300346 0.2611640678749165 0.2601042669419507 0.25932115051159205 0.2588949098910619 0.2587983316966015 0.25911411517725264 0.25863699913726285 0.258308238680993 0.2584491931777411 0.25877349051763227 0.2581598204988174 0.25808003153120257 0.2582690724862061 0.2581121801620618 0.25787835040593465 0.2572132400971724 0.2567565599223204 0.25623873268949476 0.2553309646328585 0.2543596251659246 0.25391006656440507 0.25300943126438763 0.2523292633774728 0.25193462682521456 0.2521115801379341 0.25277195143482845 0.2532211316995111 0.2534600202796903 0.25330171420142644 0.25288270185664935 0.2523790761129709 0.2516962680849875 0.25136702669331296 0.2515435943660591 0.25220694814805256 0.2521571529978383 0.2523671454498738 0.252777920927116 0.2535605419837009 0.2544795734363571 0.25597862930167353 0.25762448743904826 0.25812802733230383 0.25782317983731495 0.2572972615556148 0.2570257816766517 0.2566747046977655 0.25591046737656237 0.25511026670235964 0.2544114120315705 0.25397158793855756 0.25312347270255087 0.2521771445496626 0.251451388151695 0.2505379223295806 0.24961435514818736 0.2485090145440264 0.24739924319493337 0.24682917371832766 0.24713704340574494 0.24806695511755378 0.248157814138231 0.24420543539286374 0.24004493045143102 0.2367346308496402 0.23348007762490847 0.2306947322472859 0.228417245290429 0.22665827278529652 0.2254731479744721 0.22350616159178122 0.22140922811759461 0.21973066293654148 0.21830732464652444 0.21662617167569506 0.21500767339113153 0.21372552012021243 0.21299712960630088 0.21207727942812515 0.21052196151857086 0.2089628700876069 0.20747595770276359 0.20625804279026821 0.20471669176888713 0.20306650217466465 0.20039711018987552 0.19709512680622138 0.19305787154356555 0.1892879085607378 0.185551722269545 0.18271522935535373 0.18069961924784 0.17919173196188065 0.17721621346306102 0.17523196667052876 0.1733273906616577 0.1710387342819212 0.16914651289461982 0.167729561165625 0.16647541984432393 0.1645363367720693 0.1626610495828865 0.1612416366845149 0.15928264997001915 0.15695116164666578 0.15479123199031364 0.15287898657590684 0.15114045086540623 0.14902470411303043 0.1472599010122938 0.14452222858886457 0.14181926502288655 0.13884836141959536 0.13637757430577604 0.13404088547686493 0.13210426517496235 0.13048399865571395 0.12928957954417827 0.1286907578818767 0.1279822694613338 0.12667048147886978 0.1248677751673401 0.1235648941096651 0.1218830686557352 0.12004283353457647 0.11802281206713273 0.11588847884549183 0.11439410586649602 0.11318602022628729 0.11198475447837121 0.1107902426205503 0.10963845459790113 0.10876795525518032 0.10796177004107697 0.10752142396917093 0.10748270365038795 0.10794613890416241 0.10896965607050689 0.11050253506778485 0.11287540174523392 0.1146919214025847 0.11684381665292712 0.11458069680933637
0.25507313967105144 0.25567196755197175 0.25641796738492884 0.25680024501980225 0.25682392327028103 0.25683996245013596 0.2564310256878399 0.25600866817522844 0.25521778999198 0.2545584055663341 0.2540632211675547 0.25393398536072204 0.2538683557004186 0.25419820598750076 0.2534184992517255 0.25292395933760986 0.2528017287270173 0.25291972803145524 0.25308916655307917 0.25371352280842097 0.2542313756439121 0.2534587421788684 0.25301098366916575 0.25291559572250755 0.2530345879916055 0.25234903503911116 0.25117795893871997 0.25021354300665466 0.24945837149052302 0.2486566471213425 0.24802911377189593 0.24781855627098676 0.24786993999710233 0.24831931005439553 0.24869517429739627 0.24884339282736795 0.24868147993242593 0.24849867173878987 0.24844460389219605 0.2478238700444167 0.2476488503734707 0.24776095878780952 0.248056903140964 0.24792828730225921 0.24787343503779916 0.24812716257551137 0.24869061919437482 0.24932819991001315 0.25031256047377537 0.25108170622181225 0.2514045965309455 0.251204658903767 0.2507880987209646 0.25019585560666213 0.24980286701506862 0.24929639590993669 0.24865955098887949 0.2479467129262194 0.24728597681564712 0.24650829595632248 0.24564372409514337 0.2447694847821215 0.2440149570943769 0.24325420768995437 0.24193514108321984 0.24102715633367994 0.240693445728239 0.24107278192023318 0.24161873486881708 0.24149818614864277 0.23819682359954295 0.23463188439981203 0.23141700837563797 0.2281721337524104 0.22544326551147753 0.2231937589091705 0.22131842028432785 0.2197153079508551 0.21800314874686721 0.21632568034879723 0.2151629165059551 0.21430944660878593 0.2126998999028931 0.2105887265948045 0.2089707229306367 0.20789298219800895 0.20672967003039389 0.2051117305860688 0.2031260723682783 0.2012943825829974 0.19968499303549014 0.1980010978808503 0.19612606992526965 0.19370061150477905 0.19063839930013904 0.187013343661624 0.18360268471752178 0.18048954266256242 0.17800743133539484 0.17658640979089235 0.17625254272780302 0.17351589630361902 0.17125011304444687 0.16991863967210324 0.1679074657000954 0.16645550213856566 0.16547396903109957 0.1646257302336561 0.16297695824412295 0.16091631975543116 0.15873358458020834 0.15679257129606955 0.15518165016834068 0.1533833358517951 0.15141888822049368 0.14969045176576715 0.14748485046709361 0.14548826399733886 0.14283606273011631 0.13963399173003202 0.13683351336765648 0.13436821136575194 0.1321854635356395 0.13049215768675362 0.12881088058138282 0.12742176772865063 0.12654701597879808 0.1260518114835576 0.12527927468609634 0.12323009366461869 0.12171761061087456 0.12066715580551149 0.11909312159630142 0.11660389536253216 0.11415830102479928 0.11237057375079072 0.11117571256611748 0.11047942031574287 0.1091168482513187 0.10747090682456852 0.10637123197000116 0.10549155587148504 0.10496455912633977 0.10470919323956507 0.10491083479387195 0.10571410285465759 0.10681675570368541 0.10845061210498932 0.10997800856651606 0.11104582650558868 0.10942945062190447
0.24916763278259818 0.24999177181663665 0.2510101703703637 0.2513415738352896 0.25122633339960804 0.25125195204914963 0.25064172459574025 0.25014516763523026 0.2495954707740353 0.24913725493294425 0.24868639539346651 0.24837270867067626 0.2482622883816907 0.24830831879843895 0.24813638045785263 0.24787120090944756 0.2477070596699905 0.24790211446546298 0.24843973325613697 0.24912235761518864 0.24948981757898664 0.2488019118607042 0.24812247291494288 0.24809331514562508 0.2483786605745189 0.2479594555135544 0.24680373468114966 0.24598845685456838 0.2454095081400484 0.24466044308248927 0.24407675040602791 0.24384614417871778 0.24398393713994687 0.2444706670336674 0.2446565822924093 0.2447337901351292 0.2445833473607713 0.24431463936541706 0.244179917167098 0.24406509017869105 0.24416464957283865 0.24404367291315593 0.24416533462876489 0.2441091070085524 0.24395064093395813 0.24392451497770284 0.24419555173811677 0.2446002173388786 0.24528655424937512 0.2455001157393522 0.245599977755826 0.24532940285608168 0.24492226518881122 0.2442240902870672 0.24361835645976032 0.2432074344343908 0.24302911883501888 0.24226123693964824 0.24109867366525886 0.24014479670957292 0.2393468777901456 0.23855956524623764 0.2377798665334241 0.2370457061596646 0.23575665939360285 0.23496489070548068 0.23455960345324553 0.23441354642257195 0.2342314030988155 0.2333463161965456 0.231395463228679 0.2283674597856539 0.22553076446203926 0.22314776930870964 0.2204804140441606 0.21825612941390132 0.2163449692073788 0.214591017599118 0.21298005931873804 0.21160125785410266 0.21107426909541083 0.21162577073281 0.20940669537121806 0.20639356106390222 0.20426231273747109 0.2027934750236589 0.20105962422271972 0.19916402894202564 0.1972325816521128 0.1955078771020177 0.19387284551735576 0.1921861153569825 0.19028368239002064 0.18825718591496512 0.18535243829907988 0.18162224117097728 0.17838417461622028 0.1756570250062487 0.17349132711219756 0.1720545623891193 0.17104191684108422 0.16937841145087368 0.1675032796445421 0.16616291796545632 0.16496757324618228 0.1641254108576509 0.16338755197225102 0.16281757123515522 0.1607101255483758 0.15855108375182733 0.15651340579111325 0.15464418865176968 0.15323833703708106 0.15145735856116724 0.14933914597638193 0.14737443071913464 0.14550038232265103 0.14288673554016532 0.14043098594399558 0.13756189775387712 0.13491632877509163 0.13250372543827754 0.1303004038575964 0.1285117964691999 0.12708834784450745 0.12549748730846289 0.12452847163413833 0.12377208631194511 0.12271281307882732 0.12080798681376594 0.11920434093608101 0.1182413555164303 0.11734328064752089 0.11464321883877099 0.1121494592232169 0.11020259281518377 0.10883807257340398 0.10777817025829937 0.10675598358291795 0.10528975440433629 0.10416926986164626 0.10318852787934836 0.10259555788686764 0.10202834446737245 0.10176078460436797 0.10215506323135384 0.10297301795856335 0.10337693966026108 0.10430693026908036 0.1051788816097045 0.10442719732411648
0.24390572685842243 0.24484133764317778 0.24580105560110888 0.24606034132899063 0.2459070855582646 0.2455972790170194 0.24517048599526134 0.24466508804042866 0.24419185895620135 0.2438147093186736 0.24353338750794729 0.24316705847066475 0.24290941310222752 0.24287179284700458 0.24294791192050041 0.24286755732779286 0.24281096434425528 0.24317601794912744 0.24402382912133028 0.24463872434896555 0.2447226323973731 0.24419567331644415 0.24337818364636168 0.24317297411936337 0.2431334057664839 0.24297155304926363 0.24227351404535383 0.2416890476168962 0.24105291800815679 0.2406107566648391 0.24041101266510434 0.24022672569922668 0.24027532364345605 0.2404532200663961 0.24051828710528927 0.24079600684086488 0.24091579791983828 0.24067136085987526 0.24039179053106963 0.24032197159280919 0.2405519125736103 0.2405692336034163 0.24068581480489104 0.24085553555231512 0.2407129484696581 0.24027235215586856 0.24017681149174033 0.2401766686770135 0.2404227230113713 0.2404479464948653 0.24036691729017837 0.2401081175208576 0.23963723576410315 0.2389060179204634 0.2381567121359973 0.2376734398963705 0.23711518920724545 0.23658681087427363 0.23539556834357364 0.23437934322592033 0.23346988159892273 0.2326551155876912 0.2317527522186351 0.230791551911315 0.22991574290479042 0.22932532524990473 0.22875856193834468 0.2283850054579167 0.2278311436917926 0.2264946702755634 0.22465855478683905 0.2223828573070172 0.2201217015762492 0.2180790535124234 0.21576593572421993 0.21369102078201951 0.2118221649795505 0.21011906505632352 0.20847553029025367 0.20714548499706392 0.20663069404333947 0.20603540694722958 0.20475141728999813 0.20205068203337964 0.19964406191162715 0.1977737213314874 0.19566163962925862 0.19375371857196697 0.1918643112503867 0.19015813081501584 0.18843757009380008 0.18685073087437065 0.18480953851421028 0.18303385148387968 0.18046816395509246 0.17679236324582331 0.1737213320430003 0.17124970877303408 0.1692856350713273 0.1678633242229652 0.1664302136670893 0.1651645833906007 0.16414177402332342 0.16309192189040977 0.16248927909237418 0.16204197370854667 0.16169841065397425 0.16114684444639507 0.15880803046082642 0.1565579112211885 0.15464306641269035 0.1526417389976631 0.15072566988810862 0.1487581479223418 0.14662769000037404 0.14471291084137083 0.14273060665079096 0.14049051729181383 0.1381168770678085 0.1358727036427142 0.1333302345950399 0.13083336490042802 0.12852145880505675 0.12631332205902474 0.12466963958157942 0.12328090168369465 0.12191217664216544 0.12089183951495763 0.11977806962638433 0.11816499421284787 0.11679519003548228 0.11585436395483469 0.11468910049513333 0.11213952678535417 0.1097972988649815 0.10788332342694236 0.10634801094937464 0.10502967303734573 0.10396385350308728 0.10262313816336378 0.10156868251043194 0.10070635459628938 0.09976204590667848 0.0990839227140035 0.0985421432242524 0.09841564211895606 0.09860268938461755 0.09875475586114021 0.09917022390566 0.09945972351132552 0.09917732001361236
0.23898454768579236 0.23986851827856423 0.24058486298239595 0.24087079222453867 0.2408402361790043 0.24067801411231107 0.24030294823336434 0.23965401028951652 0.2391463368196596 0.23881111703589658 0.23858142772282134 0.23828420966656716 0.2380236965699282 0.23794442362970336 0.23801668628155734 0.23806875102455818 0.2380500780607681 0.23834500797024646 0.23910198820322964 0.23985812277447532 0.23965102533115112 0.2393766103380071 0.23893468454207725 0.23869828165188958 0.23845673153917263 0.23823622155171834 0.23781491621483303 0.23734655579457342 0.23698262102043474 0.23682600508511265 0.23661068814101538 0.2365958588138672 0.2366501092133882 0.23668203573062677 0.23685502497036978 0.23734749130861243 0.23768398120444195 0.23752470564426914 0.23710186391773572 0.2368404078217344 0.23684023482909994 0.237003357778185 0.23694157049586492 0.23687635155602396 0.23706942293525954 0.23648125523508184 0.2361406528099108 0.23588579203792562 0.23577776941647013 0.23574966262153446 0.2358349764924941 0.23583287339471484 0.23540780814632703 0.23424964689315333 0.2332022222735842 0.23250556741478282 0.23181145473461529 0.23102779012176902 0.230066578283283 0.22915479881061207 0.2281298408494642 0.22707903956119158 0.22614267473802374 0.2252299659615625 0.22444413530541 0.22392042612294416 0.2235518292054677 0.22314840710254838 0.22232795752097043 0.22085623904177437 0.21898143500960973 0.2171234758298039 0.2152759619099792 0.2135295646545567 0.21167453898058744 0.20967176151633868 0.20782533628562871 0.20606065966529122 0.20426847126562672 0.2027441946658954 0.20177516224786204 0.20095416715712916 0.19950765874973664 0.19737653285326956 0.19487601864644238 0.1924746997612468 0.19071309890070978 0.18908451692884723 0.18695138551936236 0.18490998225854918 0.18301898031002153 0.18127313985584415 0.17933030087582535 0.17757219115590586 0.17494503872355407 0.17217289877273856 0.16937466606526297 0.16712110561659688 0.16528422016745617 0.1639261422214418 0.16257433374135416 0.1615555217054092 0.16103319897672785 0.16052714248406516 0.16051059316471963 0.16049194880330483 0.16088294734085 0.16023258251208208 0.15725318644899494 0.1547309752704315 0.1531114297982106 0.15103391253860077 0.14837077094369533 0.14615224441354074 0.14396379735736817 0.14203642854124515 0.14025407199577192 0.1384048450207714 0.1361015499632906 0.13387839428527895 0.13133393999222231 0.12871926354076305 0.12618653133085847 0.12393570717648295 0.12228472399168676 0.12077017995530769 0.11938175328168144 0.11838516884942245 0.1173618301019518 0.11589429113328317 0.11460522818460983 0.11390599886389567 0.11207875745633132 0.10949960832656178 0.10744911714016411 0.10558784491201477 0.10389880271002454 0.10240795097085405 0.10121062502657363 0.1000348722279193 0.09900048450498831 0.09804709621573715 0.09693911989572099 0.09598493750496928 0.09528506092838786 0.09485561836316814 0.09468686483045873 0.09468267368605304 0.09478296658977013 0.09501185762913761 0.09485815531275676
0.2345397701340732 0.23522964728859644 0.2359433149099535 0.23654176172770983 0.23646264244093265 0.2360937560395236 0.23560672273548014 0.23511154048103555 0.23452952957401615 0.23411134269269143 0.2337879998101224 0.23356993852507366 0.23347132067318355 0.23350497311982576 0.233621936399476 0.23367005663476217 0.23359027176522945 0.23379273780991647 0.23426707106643518 0.23484940075837957 0.23520315629137822 0.23538332739433876 0.23503482619897278 0.2347457477385534 0.23425885506194125 0.2340270620374421 0.23399909991842022 0.2336006731212329 0.23335772969428903 0.2332866889428163 0.23327380214092866 0.23337011717173353 0.23357207753500822 0.23360490338851775 0.23374496672732104 0.23426663260487407 0.23449591084714305 0.23481412689193631 0.23417518951988103 0.23363376234159874 0.23353908154767072 0.23375059213083443 0.23313709961146922 0.23286811774629448 0.23284306055729423 0.23275973447084125 0.23220940360026873 0.2318380581396802 0.23159620178670814 0.23155419928345441 0.23200607518063515 0.2324438018435587 0.2322890946453785 0.23011335892682622 0.2287151897234201 0.2278253313860877 0.22695488048799145 0.22609205066348065 0.2252214317732717 0.22425538726599095 0.22315263706634159 0.22194548051555618 0.2209884763992671 0.22003319814737976 0.21931903321003848 0.21897631439984802 0.21911384361771813 0.21878270338929515 0.21765138400759854 0.21594585096631436 0.21411788170728133 0.21238400451176673 0.21083765590033127 0.20955148394940498 0.20804636481512961 0.20593519825707216 0.2039663471798919 0.20222169995140482 0.20041942967645082 0.19855373618682684 0.19695333673597298 0.19564997756996663 0.19404015340105463 0.19170142902406853 0.18938328979641 0.18719798224591572 0.18561888174338353 0.1838846650325514 0.18213097954409035 0.18002410023836798 0.17791903189460634 0.1758956445149126 0.17413130275545116 0.17270196156888096 0.1699361869076077 0.16748922836501584 0.1651152231943797 0.16314028727654425 0.16155836144682886 0.1602517204126158 0.15919173218004745 0.15845644375172557 0.15808728257336824 0.15809272359865073 0.15848466276588427 0.1591670572699018 0.159723037917596 0.15841218637445303 0.1553130804215782 0.15271940851822943 0.15081507787889573 0.14925210865397984 0.14609705860147074 0.143902465637413 0.14139560292732892 0.13956192782091104 0.1379006263299534 0.1353577677579546 0.13331396324506994 0.1311479582639779 0.12872154735997038 0.1264265347876745 0.12357241957228701 0.12128432658541605 0.11958245041154766 0.11809384503415375 0.11685371496714884 0.11616119335834668 0.11520828007045016 0.11381417872528042 0.11218154867345032 0.11079848095050679 0.10858042768310619 0.10671485279740474 0.1050413042342492 0.10341592809196434 0.10156833287160907 0.10000809309941905 0.0988623190363541 0.09787910752699482 0.09690339797661193 0.0957074981574318 0.09441561209041566 0.09318045369586551 0.09229520314699906 0.09160523039500947 0.09113853260245626 0.09088715555858252 0.09080196461292844 0.09100381917517364 0.09070113469805637
0.23023057826172427 0.23107011867823266 0.23200887062470715 0.23278470711970065 0.23269289477203342 0.23213521470420764 0.23142490713606997 0.23083736315876713 0.2302405998351854 0.22974822954379756 0.22946713018369885 0.22938695258854883 0.22948582084240882 0.22953616375079647 0.22942357753604975 0.2294345039454659 0.2294302497032411 0.22960792013339099 0.2300179751298271 0.23056784932782587 0.23133457552095368 0.23224541873048934 0.2314762175069343 0.2308974545403052 0.2304940667427009 0.23031500191824233 0.2304541489440202 0.23028164222545539 0.23025536211597458 0.23035722839586356 0.23052329869092153 0.23077064086064727 0.231101054826872 0.2310166445444759 0.23094961924106902 0.2310989111943906 0.23135619877098512 0.23138017139235187 0.23074346279910457 0.23029870860103027 0.23015212132229784 0.23016633447200116 0.2296017436420256 0.22915268828750987 0.22904602591460643 0.22929618005537958 0.2285491678478724 0.22789382941650851 0.22764878822262988 0.22758190964654237 0.22790118598597964 0.2285625663562466 0.2280731911924602 0.22596917017288487 0.22454592605642015 0.22358513021009063 0.22239209533247303 0.22148281869068376 0.22078010880477159 0.2198448789548311 0.2185024553514662 0.217176081630261 0.21606300868887482 0.21511694886860383 0.21446979290439708 0.21421976037854595 0.2143512188669477 0.21432361067706876 0.21356735658554168 0.21185642167823024 0.210035920277462 0.2080644272299326 0.20651628054255283 0.20514595305787714 0.20389687716019575 0.202172240814745 0.2003956643408501 0.19885021895723548 0.19702463206824622 0.1948794070966853 0.19286277301576668 0.19088606428871552 0.18873413460094438 0.18648128561692745 0.18425807604432587 0.1822125036619994 0.18059612544304562 0.17881500506480888 0.17741745651925633 0.1755536683434125 0.17319270644895657 0.17099144828728624 0.1692985911113422 0.1677580275035518 0.1652961275907951 0.16303921179446132 0.16107811194338545 0.15944813581411116 0.15813435094691575 0.15696887453426614 0.1561505840893129 0.15572038960737097 0.1555224054489033 0.15594339237383295 0.15677542202762804 0.15818989896885377 0.15781875666887304 0.15611357137669965 0.15347838966758087 0.1506637342200002 0.14800812025526738 0.14571809295379398 0.14332533850500437 0.1410188575025183 0.1385824614981691 0.13690283717061125 0.13503216474398133 0.13208246979876556 0.129844913645334 0.12797218543757277 0.12566457730471361 0.12316564986730542 0.12077576587871733 0.11853994347349675 0.11689572542782872 0.11554938669163824 0.11414305319558739 0.11318522932644147 0.11231849266155312 0.11111788288876494 0.10962407435641737 0.10756905754011499 0.1053132311795982 0.10370527312035507 0.10227504375096147 0.1007735258077262 0.09916283594488332 0.09778594063740777 0.0968667503657038 0.09613838486392251 0.09472353532838268 0.09325563609721566 0.09194446954995421 0.09055811510570705 0.08954575770299844 0.08855947562667664 0.08780605469439388 0.08734180931768132 0.08708790700943024 0.08687119178574197 0.08663322726446925
0.22593270172767 0.2272583628990248 0.22829970140284417 0.22929895016144614 0.2292229583659056 0.22862323689928743 0.22770154704790901 0.22676308915791613 0.22615111525377435 0.22563618034939897 0.2254388632369074 0.22558869039217092 0.22573140301268255 0.22558706737499512 0.22535372189907693 0.22537030937624786 0.22561883217113982 0.22574802673730207 0.22621663745430315 0.22666575723776866 0.22750624444204737 0.2285679991343203 0.228008304853909 0.22748017347339639 0.22714811724347592 0.22705272885372865 0.22725397093321859 0.22751124340716022 0.22782909949075145 0.2281549397620218 0.22850662852784806 0.22870633654551037 0.2287532359571459 0.2285758611251737 0.2283620691312591 0.2281688304530556 0.2281596056671449 0.22798668284758553 0.2275635336268012 0.2272458284688298 0.2270831497018321 0.22687095454799136 0.22649776364510965 0.2258294492409654 0.22542624974461262 0.2251644320206056 0.22465309319193058 0.22420588362215857 0.22410291221386056 0.22389931437253074 0.22363204472484915 0.2238433808411199 0.22337461585364604 0.2217575714264683 0.22044432372207107 0.21923745794611604 0.21809617698606598 0.2171753668435336 0.2165368984556761 0.21559865606539735 0.21425569661211458 0.2127726488695174 0.21156357687413593 0.21056762388382483 0.2098469536460166 0.20954567001414193 0.20933430968564468 0.2094825974664524 0.20958974101369776 0.2081208648023924 0.20602709359149482 0.20408942720438644 0.20250149831784284 0.20101264552389436 0.19975166592452037 0.19844044881567646 0.19710288837245932 0.19551565275752095 0.19340612730466825 0.19133659896387298 0.18916764286475396 0.18683570847712486 0.18437018096289395 0.1819666903783343 0.17971680003010904 0.17758577193399583 0.1756084689948184 0.17387823994434023 0.1723229459964383 0.17069445394432536 0.1684841875665512 0.1664188557937324 0.16483277182780967 0.1634148713751497 0.16106221832960504 0.1589469736676052 0.15727412260615178 0.15604825368480854 0.15478364683534032 0.15363167868312289 0.15297848787187643 0.15286309908098503 0.1532506099778957 0.154046919465642 0.15527756768180354 0.15605712800400923 0.15512501260568956 0.15338459037607763 0.15171431740726304 0.14808517561859005 0.1448771924659549 0.1424797143711674 0.14057375836563743 0.13819872835787284 0.13552691692842933 0.13347590888228444 0.13131155635395234 0.12913511659973773 0.12664982237940026 0.12446259608350105 0.12219430039072789 0.11997284396483067 0.11793902038224958 0.11584972731412724 0.11433084722977462 0.11298967422815316 0.11135770381324986 0.10983234466319518 0.10873347408873289 0.10774136237387126 0.10629149964063016 0.10412308329445477 0.10226772515094981 0.10071699187769459 0.09935595942617634 0.09813191220863314 0.0969074844632697 0.09560080170607811 0.09470171473962223 0.09383306911940999 0.09246195848677476 0.09079956788031242 0.08923469074020622 0.0879152080903389 0.08676383449878343 0.08563982338070898 0.0847373387018963 0.08409854856978373 0.0836108786746273 0.08328551696928067 0.08308968713403421
0.2219365440088708 0.22346724834828047 0.2246191598860915 0.2254262236864603 0.22593292108812812 0.2250936224910789 0.2238718072086515 0.22300249907544598 0.2222554227809046 0.22173370952673213 0.2215941870623017 0.2217225412766665 0.22192704896826704 0.22182097504042003 0.22166322936996644 0.22171332358431878 0.22199360382260672 0.2222377374688384 0.22258288159004538 0.22308620217318614 0.22383019215766264 0.22450057359615952 0.22465847495510946 0.22456708566973757 0.22434940244738574 0.22417889950877962 0.2245025079796523 0.22512177481821907 0.22583775217897167 0.22639373274219365 0.2269706650060116 0.22686405861971662 0.22634905127904578 0.22592772632166636 0.2257352801922907 0.22564485359844894 0.22557624263601767 0.22525451660927756 0.2248984188613108 0.22451922408600822 0.2243684602501031 0.22416515414532565 0.2236813770006704 0.22293625001185166 0.22233378560288633 0.22185260581949132 0.22134319446049297 0.2208460899937954 0.22060573249392967 0.2202052191473805 0.21982185905716492 0.2196047008232644 0.21895346710486624 0.21784740276288259 0.21661368529428177 0.21527130861254665 0.21416312885346034 0.21330325793260638 0.21268849577970395 0.21154277934449947 0.21020749207119319 0.2087207399502355 0.20743299403649423 0.20631332135194885 0.20553746622564886 0.20530302567185754 0.20503989048076135 0.20482489756756467 0.20524022757430094 0.20361297942361636 0.20126100902024632 0.19966130454954456 0.19862415098942837 0.19738416508338152 0.1963525310594725 0.1953642018394343 0.19420454576840215 0.19293216743757136 0.19047681316848683 0.1882463466375628 0.18599762129271316 0.18350611257860977 0.1806811444292373 0.17806223789966336 0.1757032598316685 0.17336460845444893 0.17113363023202444 0.16924592835711888 0.1675101095368763 0.16585099261449254 0.16399257929854463 0.1620512203090537 0.1604069240662634 0.15897049914049718 0.15696832381585976 0.155092558885818 0.15355275442388067 0.15239202691031659 0.1513497416164797 0.15035829733729292 0.14998061062782034 0.15008578346549736 0.15095088707711146 0.15217152954699545 0.15400149845711167 0.1556552394829842 0.15254493210416598 0.15058632578159922 0.14810911909776267 0.14473391472620992 0.14155155457979637 0.13893137471426228 0.13668037701749214 0.1343262690356845 0.13192730097889735 0.12981496118293911 0.12763240479530186 0.125688254681327 0.12356206924030373 0.12137638891875295 0.11913143270266269 0.11700979099457723 0.1151467145441152 0.11317794159044223 0.11181001472919007 0.1101144965219657 0.10833446776974721 0.10667950202278034 0.10539159066477746 0.10434344283535364 0.10284110722341604 0.1011930244493307 0.09956779541525825 0.09803838766022872 0.09673551315004268 0.09566330417357803 0.09432985746888373 0.09320692301802143 0.0925548781466868 0.0914600027633877 0.09039643134282793 0.0883938774296874 0.08664486094977292 0.0854080744156139 0.08422050501891683 0.08301514572237727 0.08195655300571804 0.08106048970767059 0.0804476952513375 0.08009377263580429 0.07994100278378026
0.21827005494444351 0.220470357002963 0.22154644982801258 0.2218943502604885 0.22222755221617133 0.22154962103372774 0.22041453693794794 0.21944559444530595 0.21864954617633867 0.21812934231933315 0.21800474972075357 0.21825751042605118 0.2183795757370134 0.2184908205341454 0.21836829176218847 0.2184304439426149 0.21871544000222323 0.21921026302133034 0.21943893801554346 0.21997143349192055 0.2207661077175106 0.22140043896666733 0.22184926250401354 0.2219281835234187 0.22183899118189737 0.22165075591687836 0.2219681981855257 0.2223674438191545 0.22307310022986054 0.22395711167358026 0.2244130307804548 0.2243958617575091 0.2240922799613052 0.22375188166531756 0.22368899633142048 0.22373491315557428 0.2237850885646488 0.22332237736518445 0.22286451571228275 0.22230654978129544 0.2219045735842359 0.22166576988866285 0.22119624691853998 0.22058261796441464 0.21981765232973924 0.21909295527351624 0.21847016245800197 0.2178427823163404 0.21738931191515656 0.21700000407334305 0.2165413259936955 0.21629907206289917 0.21531647555528413 0.2142114426514484 0.21303015674498 0.2117447186690712 0.21067149654700168 0.20988775417166144 0.20925817005457575 0.20801909835627247 0.20663394257975834 0.20511094304220917 0.2036185036643667 0.2023708808112336 0.20145720283235763 0.20084978905298637 0.20051732776498085 0.19966892094004346 0.1988737252065698 0.19774768130489875 0.1964077866725866 0.19566842775459692 0.1952865290536594 0.19430233377144582 0.1934505093850179 0.19278767534991437 0.19146345872804857 0.18981728783484766 0.18781099770975546 0.18575594514284813 0.18369202665298362 0.18057121974550977 0.17740317458336521 0.1744233325587595 0.17176085875789432 0.16924984208453173 0.16697938483957814 0.1649964732248717 0.1631418005232173 0.16134553906773358 0.15955273022937813 0.15781185067678288 0.15619832152938878 0.15463875227941315 0.15303082340485477 0.15148837068715093 0.14995727356914 0.14879820982400663 0.14783537472910754 0.14714225649776905 0.1470207347720564 0.1470980553987427 0.1480443464057966 0.1492216281917681 0.1511084677979382 0.15104602999075828 0.14807683974799887 0.1456406815079311 0.14322278210478 0.1404146028314425 0.13763595264071896 0.13523629283352298 0.13302541083248173 0.13080095497373487 0.12857303956732402 0.1265601389664956 0.12445797137218964 0.12253393581924084 0.12060625069845837 0.11867922997313247 0.11630389700210024 0.11418843149518076 0.11230672038170916 0.11047168259285474 0.10906235913431696 0.10740978613443215 0.10549022749805952 0.10380890122409886 0.10252910144723104 0.10144726053139401 0.10001382837362469 0.09856734032960643 0.0969966899306763 0.09557490419792378 0.09442458483819714 0.09351687484425475 0.09209311742025877 0.09076227165199291 0.08975648096376819 0.0886779666100916 0.08734445323883631 0.08559020836928422 0.08396075207324123 0.08251969460189935 0.08134006194712123 0.08027749379933942 0.0792805694273107 0.07822881889810021 0.07753667799258213 0.07702950784310356 0.0766434905527982
0.21495682037688987 0.2174252258519175 0.21868833947701624 0.21840973006852843 0.21828843309732088 0.21809470224544977 0.2170110109277985 0.21595534356396712 0.2153389923194591 0.21476979714494437 0.21456999890788309 0.21474716064069382 0.21494576001634044 0.21511983108044405 0.21527480181937705 0.2155842430281877 0.21582933728742 0.21617557254219869 0.21665858231173218 0.21733425008503063 0.2181986814501694 0.21882385746484187 0.21906207508405404 0.21922719846020777 0.21922670941653138 0.2193605991469167 0.21956613830283028 0.21985950388957912 0.22062963526840582 0.22185897724115303 0.2219632394047877 0.22229326861174364 0.22213456886341423 0.22203347697035644 0.22237362794963692 0.22252023071283691 0.2222774335795285 0.2216801473593282 0.22110764522591034 0.2205060554465153 0.21999780650288017 0.2196914788796321 0.21908528847104652 0.2183944570836826 0.2175643326514654 0.21676088841006497 0.21604617301639106 0.21531732630225905 0.21476507064761294 0.21420541581993638 0.21376885721574929 0.21324652637463393 0.21231216140456383 0.2110937992814762 0.2096629233177594 0.20848507337558467 0.20756668770627487 0.2068909862932525 0.20615310240918772 0.20522977198795778 0.20387413126741036 0.20203425482050594 0.2002227485679221 0.19867979711173606 0.1974372304338487 0.19647455747717504 0.19560181740043942 0.19456369652860045 0.19347750360484495 0.19255021952688106 0.19194672479527727 0.19204458314610204 0.19213480063320504 0.19125892183028947 0.19073703291419336 0.19040781967997475 0.18944233261242316 0.1879310852234614 0.1856807845689926 0.18326588506137634 0.1810304690767117 0.17774866764057284 0.17418000595208913 0.17107295207863624 0.16822199456487122 0.1655301251755521 0.16312325546093226 0.16109582050745372 0.15916363093338226 0.15726178939746682 0.15553678362477635 0.15404866507827725 0.15241297963035522 0.1509033872781896 0.14929857945394137 0.14787758502268145 0.1465452195008485 0.14536822042871564 0.1444551152686995 0.14399755635766467 0.14395499579831583 0.1438357109606847 0.14420932996512856 0.14492398373799498 0.1456896322167124 0.1447815825445296 0.14287675413294923 0.14050638504359256 0.1382166933999217 0.13593238936654714 0.13371351918510094 0.13165590334513239 0.12965402550405153 0.12769299379107346 0.1258408429944012 0.12373984294670515 0.12172752267379752 0.11989922549939687 0.11801388579053093 0.1159467746145714 0.11358175086078132 0.1113804597200963 0.10961207174280908 0.10771062529360324 0.105935423880251 0.1043196496226432 0.10274240073238103 0.10105318476120434 0.10000970976003072 0.0987378428368275 0.09731028394771606 0.09591812365592782 0.09449289555985277 0.09331344245218003 0.0923507123512358 0.09126071217880238 0.09000580193050557 0.08861788346082951 0.0872331540486388 0.08577109537100963 0.08429199170823151 0.08274839236040965 0.08109542504828746 0.07961035382204361 0.07832422225064772 0.0771633475304994 0.07623781903372205 0.0754507771638807 0.07480900949433539 0.07426415917307387 0.07375590975646305
0.21150899663757136 0.21304521399776796 0.2137041500081174 0.21396277710247655 0.2142789350214095 0.21402055973163106 0.2133093802140581 0.2126795331774694 0.212244725787914 0.21163494768953622 0.21132316837359186 0.21138304582040296 0.21162414098028706 0.2119425331333081 0.21233228188994022 0.21289729563603724 0.21322304200130401 0.21362116033431822 0.21431097997445298 0.2151792206973604 0.21612328124822086 0.21663302897087708 0.2165877625625579 0.2166127919433647 0.21679433445634774 0.21708033911589802 0.21730439263714788 0.217634430927778 0.2183101486044197 0.21927993876560922 0.2196080114799701 0.22001395145205527 0.2201937230121294 0.22077335148498134 0.22169176719164702 0.22227595919214668 0.22139721080004976 0.22048276397496075 0.21979089406221697 0.2190825075438238 0.21845328097352915 0.21784555439216424 0.21709380964018055 0.21621885411961778 0.21547632056015678 0.21477265333943285 0.2140294546221963 0.21328742324547512 0.21243386713191054 0.2120164327721516 0.21155732484613535 0.21056206057241622 0.20964684687906784 0.20827117117837393 0.20675540290662286 0.20566088631375132 0.20487969848481102 0.20439659374973715 0.2038151979088183 0.2027729855546999 0.20147465133485998 0.19945754616461026 0.1972566708951035 0.1952728260349968 0.19361927872793389 0.19226276871743658 0.19105860203315944 0.1899237072381913 0.1889033260344125 0.18809252184292402 0.1877130919591557 0.18781857168965377 0.18784540679902745 0.1878613433243718 0.18825633278107323 0.18850336194665912 0.18757855689743028 0.18679255659126903 0.18424314162818992 0.1810313354227074 0.1780271191337198 0.17464141368811212 0.17120625164215142 0.167902665694758 0.16499522273480208 0.1620454068453525 0.1596125311649666 0.15739027994251337 0.15547809413895988 0.1535790207179774 0.15196286693711042 0.15084520585320424 0.1491903111088747 0.14754717912064888 0.14599687111730475 0.1446023426399524 0.14341786333308532 0.1423260325012307 0.14145167763079008 0.14100967330149983 0.14093727841412612 0.1405892185798456 0.14047453015397757 0.1407378242792046 0.14084728993420279 0.13974876093587577 0.13815562091290745 0.13615521653712145 0.13419237867584705 0.13220518016539612 0.13031905225247895 0.12853854296837078 0.12677690922415974 0.12499457811885066 0.1231726743840211 0.12130637019542936 0.11959542806982787 0.11773756036618645 0.11580652983264311 0.11349244077993183 0.11098678608464972 0.10879454165728168 0.10695381218758626 0.1051343548215877 0.10331159842919704 0.10154904720745518 0.09984811701681817 0.09828469941964636 0.09728849689181931 0.09618954248332383 0.09437638779069547 0.09299962221098163 0.09185380434416066 0.0907994527549266 0.0896854415785901 0.08850865361573076 0.08754991955488091 0.08636506904971732 0.08493022380733807 0.08331707243201196 0.08153665201701568 0.0798096313744351 0.07819526393512184 0.07677642044523864 0.07536124318782196 0.07422214163770166 0.07339907553702911 0.07275056096469118 0.07233563900847333 0.07180813042880677 0.07109134608199227
0.2071047288839873 0.2087272330994866 0.20936934152365683 0.20990165396380367 0.2102092779645459 0.21011083757905075 0.209957219565 0.20946557957948472 0.20894185707092483 0.20848728142364517 0.20828323546524713 0.20841034766903685 0.20877996789245656 0.2093123591934252 0.20970039319766928 0.21023843849134774 0.21086988468217463 0.21143249546727186 0.2122917038751308 0.21331515256331252 0.21435472753327064 0.2144881459445541 0.2143776746541647 0.2145037027565841 0.21470778171187532 0.21524981050434885 0.21552890513305945 0.2157013637699637 0.21614401718114082 0.21678027217311344 0.21722132290181462 0.21778933445863127 0.2183771805962313 0.21928093174665975 0.22027381496481543 0.22102266166600215 0.22077852167524817 0.21967338521862667 0.21898853505171026 0.21825287906355012 0.2173948434856612 0.21655573035883038 0.21568024180090942 0.2146205236115532 0.21365571407864611 0.2127463675865588 0.21186012290734146 0.21121377809356726 0.210424654621617 0.20992657383630633 0.20930311766554888 0.20829078449399177 0.20720642121690958 0.20564989780911352 0.2042631470287146 0.20323757404987466 0.2025957389827711 0.2026100894647829 0.20237947292874503 0.20114641085778442 0.20028374443726818 0.19795212323703532 0.19481978253958424 0.19213246246639423 0.19006977633422303 0.18846013126145997 0.18706134901050553 0.18578447688762503 0.18474337965762877 0.18400795942350068 0.1837415836071798 0.18378253986080476 0.18400061937393603 0.18454403947178663 0.1859731276552996 0.1864244488607306 0.18516175596338316 0.18359929758280044 0.18113555179483526 0.17805904186984656 0.17531085585226727 0.1715787489645218 0.16841129588516288 0.1647581418761639 0.16152481170461214 0.1586995466809991 0.15619575749035283 0.15396476122157984 0.1519802576040894 0.15021442337030758 0.14873613448687498 0.1475508816885072 0.14609865473341652 0.1445963820779959 0.14311521311953299 0.14163951752882134 0.1404972773845782 0.1396716712971895 0.1388226597250795 0.13818231913052437 0.1378460831033293 0.1374965263312246 0.1372807331787339 0.1374052202630843 0.13700260059987646 0.13579226600425706 0.13413443383921547 0.1324681661650429 0.13073013264833028 0.12906753437405466 0.12764035069804786 0.1259053909058294 0.12445323280979764 0.12283615611700159 0.12125915632661725 0.11949539373888081 0.11786352551283483 0.11578139387592344 0.11361658411058823 0.11090050235947513 0.10846611726640916 0.10641270446747683 0.1047146891439855 0.10306680145678397 0.10131551489064022 0.09937160981877233 0.09720379126316817 0.09556883075776645 0.09423273245490395 0.09293260727264578 0.09142983257417724 0.09006121292572726 0.08895349306488107 0.08798472697954586 0.08702910199301303 0.08618087760470712 0.08549417407059866 0.08444381932090658 0.08320481499335501 0.08131353504409153 0.07915548090312285 0.07716885567759495 0.07540177803799937 0.07395623896557632 0.07255231000486348 0.07139798412567015 0.07053350620002002 0.06998884051627179 0.06973473786204705 0.06941934526287334 0.06844209511031267
0.20297772070978168 0.20463030954763559 0.2053991854872451 0.20640648890705143 0.2064143139391056 0.2064026108611684 0.2062901417652759 0.20611974144091558 0.20580007583895477 0.2055097866274868 0.2054532290044655 0.20574014567474957 0.20633980095650578 0.20696759915852356 0.20749596419616323 0.20809780285448579 0.20882165402359068 0.20956145485400324 0.2105899940704894 0.21179007522070623 0.21298489097934845 0.21278506084238993 0.21255535546372392 0.21274859243411606 0.2128083041717193 0.21326600838856857 0.21385011930156464 0.21392118967618717 0.21411099623164673 0.2146661496707206 0.21535378460029744 0.2161969961004346 0.21691051188547392 0.2177220302760837 0.21853961122757845 0.21900244193595003 0.21908492383620126 0.2187883961163058 0.2184495883240855 0.21777940563535536 0.21693349604889212 0.21596540670970543 0.21491743019867 0.21348761476646352 0.2122733970286256 0.21120889646680183 0.21008360198411588 0.2091234262691835 0.2084195274694671 0.20810786417948798 0.2070530620048367 0.20591038898501302 0.2048321287222571 0.20344010991713282 0.20215464852189877 0.20112181632300463 0.2004580986645858 0.20049013345364755 0.20028986419185427 0.20000535763430796 0.2003754845812236 0.19688916632554518 0.19226392551766694 0.1890777509090458 0.1866786591719518 0.1848092816256865 0.18325337936203503 0.1819590078852286 0.18091511100766863 0.18012757551449088 0.1798555383652029 0.17993376344765313 0.18042210193277586 0.18106353062727468 0.18286579303658249 0.18349890960019982 0.18190501926935806 0.17997969053244395 0.1772196217694512 0.17462910603758944 0.17191310785462838 0.16821223689325354 0.16508292829650378 0.16144705028973758 0.15823019014500048 0.15545701348083407 0.15302308947517015 0.15082602597207967 0.14887162593659561 0.14723358390195357 0.14580556364893094 0.14428143893610182 0.14293628885034718 0.14160778637619809 0.140440932056818 0.13892217487779332 0.1377576697492022 0.13698620211280152 0.1363144506259467 0.13573873596811462 0.13527573877959514 0.13474314745245053 0.1343315525808635 0.13459505391447174 0.13417259096117062 0.13288962925560485 0.13108048989392618 0.1293058173922907 0.12775744167600497 0.1261075416101619 0.12490994037065273 0.12350536216305186 0.12229886387178603 0.12088015379831449 0.11998827336521077 0.11796642273382676 0.11589691196079879 0.11373020908128155 0.11119720022373562 0.10867004820164895 0.10625690955277005 0.10426949848877545 0.10261464457260323 0.10100388714790007 0.0994171349072979 0.09728666358982137 0.0946903755116773 0.09275185989610506 0.09124464128454889 0.08992255224645421 0.08864032733769525 0.08730847927981032 0.08614315661728682 0.08513160985205888 0.08425078093348372 0.08371154164087626 0.08329346190743872 0.08251741747118387 0.08134098308650818 0.07926717680390288 0.07697019727528892 0.0747764318198014 0.07284229272583313 0.07127515715445844 0.06989864863363571 0.0687262743453314 0.06780520026762406 0.06715969454928762 0.06673906786270983 0.0663170111000444 0.06568682999754898
0.1990547160588972 0.20060887058062107 0.20139787378924692 0.20209307698140488 0.20257848199356054 0.20272434122662905 0.2029073897594135 0.20293409261832207 0.2027851246337379 0.2026818233732916 0.20284288841941958 0.2033209215827934 0.20413259353124874 0.20494901957002165 0.2058487571720191 0.20648279869485386 0.20720322869421018 0.20806356585349695 0.208876770067169 0.20986536437871733 0.2110869744237733 0.21094208270612536 0.2107452906005987 0.21094089362187762 0.2111402941243779 0.21143926844661928 0.21206351902712023 0.2121332901981013 0.21241761401467205 0.21304671583655876 0.21397692651764563 0.21510967875385914 0.215821723924846 0.2165280508117997 0.21716905884647109 0.21746205273435584 0.21756057782643284 0.21772105178061543 0.21762177203835828 0.21696785523954618 0.21632365573561294 0.21576316303475557 0.21442935883405537 0.21273015383913013 0.21122225795300617 0.2098511294622686 0.2086450673394396 0.20748217970895774 0.2065126399949013 0.20590587818337505 0.20506346300259307 0.2039233084396365 0.202658845729068 0.2014701828408377 0.2003101477895027 0.19927091176678685 0.19844459140747725 0.19778970418572056 0.1975387736087292 0.1983875877411863 0.1969595120405668 0.19268344655197686 0.18884070639023937 0.18587536763270915 0.1833799846441747 0.18138242680778616 0.17971120421761946 0.17833830644462795 0.17723124603907978 0.17643142302179815 0.17601122739484915 0.17602095700313922 0.17640689179434882 0.17704804623297254 0.17775297707687324 0.1785042101376614 0.17828947002636095 0.1764364560760209 0.1734998085083845 0.17077918261547698 0.16791770469289283 0.16476537923390913 0.16156693777002418 0.1580715201831031 0.15501982020062025 0.1523900999025635 0.15007693113841164 0.14803612217110135 0.14602513907111078 0.14429291559625004 0.14272284235108829 0.1411407014133368 0.13976912991637735 0.1385405624354736 0.13742356127913904 0.13628248482757188 0.13533102891872675 0.13461448645833704 0.13408226938967377 0.1336886857323439 0.13324547879162227 0.13256252319567638 0.13168801535143856 0.13113079371726505 0.1306258496428665 0.12988113314713792 0.1284945544980542 0.1266423817153859 0.12485626626890764 0.12328717305319482 0.12202087759781784 0.12111382962267789 0.12002100683874678 0.11855251451278194 0.11692872069622519 0.11523315506030661 0.11369778400429983 0.11179883980943815 0.10926717548023879 0.10714137777745264 0.10429397776804518 0.10223305736502084 0.1003118920672455 0.09856021157778376 0.09668636871263953 0.0948887335688788 0.09216950995485997 0.09004958539500843 0.08847412571417226 0.08718094715427148 0.08592540850555348 0.0846686026179117 0.08361664346164682 0.08255486434740722 0.08155416617862572 0.08089007907338369 0.08061434759369077 0.08008994549256815 0.07871731577336626 0.07715849511555334 0.07486982503967043 0.0725148217945146 0.07036932226692204 0.06869617037159521 0.0673988584393921 0.06632555691519008 0.06527172900785029 0.06449503180414033 0.06403055432798772 0.06372943908752593 0.06321383320135535
0.19519996869767858 0.1963980709015668 0.19750040646998154 0.19830989618681144 0.19896391237307814 0.1994676801248247 0.20002712329613093 0.20051020924550647 0.20020117241334315 0.200191926598311 0.20049187709109131 0.20111403425613952 0.20202380407380302 0.2030779843053292 0.20428791151042489 0.20531704383056937 0.20596553006111684 0.20653647498994468 0.20717970203015038 0.20812929959267926 0.20917123888773173 0.20948927960406116 0.2093050858485461 0.20940948735008472 0.20960238648075719 0.2100181023507088 0.21055516378757913 0.21055340217593987 0.21100701792810042 0.2117831667551 0.2131168972912479 0.2149958118059098 0.21519128534911458 0.21534411176873558 0.21577197240156182 0.21617383152403932 0.2165978536918937 0.21706512205721892 0.21692758787914806 0.21633111916327433 0.2160315648223359 0.21557581944750873 0.214299738311801 0.21248642450028776 0.21056211171679737 0.20887560780951758 0.20749762684037135 0.20605736585729878 0.20485718061620256 0.20384478244468532 0.20311209194515992 0.20197997722222505 0.20104970424687948 0.20027271329860297 0.19911503535023062 0.19792849238124277 0.1967449602395619 0.1954342537582034 0.19466442379634044 0.19434267118004261 0.19207353904285562 0.18886610755532188 0.18553870970310957 0.18273806193180606 0.18018278541520502 0.17812900423509034 0.17639790881265402 0.175006138467798 0.17385744563125607 0.1729286408712778 0.17241170958474847 0.17229757022576833 0.17250143295217898 0.1728081534323743 0.1731518513202312 0.17364137046808262 0.1737323968771585 0.1730593088619696 0.17029406844381784 0.16775319800311328 0.16479359816668265 0.16158770046633927 0.15830615583678195 0.15484210092600192 0.15196057248165382 0.14938143130982282 0.14720329679160232 0.14535272752547712 0.14324596970323042 0.1414053728916079 0.13978489703118788 0.1382770233337543 0.1368922816991785 0.13574071604595622 0.13483399480719754 0.13411837639244242 0.13337165240783408 0.13281015608380253 0.13252557971290382 0.13233301971037373 0.13211480000953893 0.13108029583846909 0.1294259484491516 0.12824352658201535 0.12756285352719918 0.1268720866301938 0.1256052290477795 0.1241859046449935 0.12245754641320189 0.12076673863153226 0.11934636719995936 0.11837863767602454 0.11744575041890613 0.11601877962078809 0.11442937382070649 0.1128030023827707 0.1114270094856324 0.10972234879015201 0.10721524071092929 0.10479724283699203 0.10229697237709885 0.10002006623630225 0.09807645740716422 0.0961171193889814 0.09401402298221405 0.0918352962663204 0.08952520160301389 0.08747542927102192 0.08588997509184074 0.08467557934264049 0.08348384242994912 0.08227387673423109 0.08121359915790366 0.08003561045249019 0.07899167770630203 0.0782043486902675 0.07770378306321817 0.07756859987748534 0.07647769638502751 0.07456861911928293 0.07247823506494375 0.0700532117460326 0.06793359608830851 0.06627741684309346 0.06495050988300459 0.06385693561884995 0.0627630752874196 0.06201986694428505 0.06163648644623217 0.061285096408792636 0.060677733333813356
0.1915969538500149 0.19294714783372885 0.1942695535041723 0.1951237650917714 0.1958038879539491 0.19647174860212976 0.19730000856871566 0.19785549014089357 0.19799732326240857 0.19807428545477576 0.19841799317831774 0.19908428719037125 0.19996930616772826 0.2011643404727893 0.20293545098909843 0.2043656633624219 0.2045258610694489 0.2050184441509738 0.20583383192392124 0.20701193933681208 0.20822643194873036 0.20879766282995726 0.20847303417338556 0.20847023529987027 0.2085114927438774 0.2087915152749437 0.20920444176986214 0.20916788596130406 0.20961295697636026 0.21061816921911244 0.2125179074514931 0.2138238925439946 0.21429182502837016 0.21446571246541238 0.2148718965977792 0.21539334018930517 0.21577185537201155 0.21624336550082202 0.2161264936012803 0.21605481183937608 0.21648981928262837 0.21614036831994807 0.21499678963563207 0.21283590600233648 0.21028532989197987 0.20812061014802244 0.2063258638788022 0.20462263256258667 0.2031614520127668 0.20194907746633786 0.20086608621558633 0.19986027721780514 0.19957267231489337 0.19940534133181673 0.19806291613038818 0.197011452599763 0.19500056782305866 0.19330412782414017 0.19179812346196137 0.1900759481061024 0.18787142805976487 0.18531249890615462 0.18249141122762041 0.17971052270301585 0.1771047799931759 0.17502975568426588 0.1733112560467242 0.1719374062452214 0.17068627654739038 0.16967337694956325 0.16906017413800895 0.16886118149662355 0.16902844849148116 0.16930267336919363 0.16938790942131082 0.16951633990408094 0.16945268377686043 0.16846848184394178 0.16720981012936015 0.16618136316654958 0.1621687377983936 0.15811112309375783 0.15488690260934548 0.1516890254356241 0.1489970265265468 0.1466391310133799 0.1445646272910974 0.14254393357503983 0.14059151920521556 0.13890178791353838 0.13716297750767764 0.13570982736306095 0.1344346904541385 0.13348188982002007 0.13278571164204786 0.13226150943195011 0.1319691389552781 0.1316162931693899 0.13128987672260237 0.13106147579776467 0.1307220576248837 0.12882294610343922 0.12699764677088388 0.12578007950971315 0.12499815001100971 0.12420879795026368 0.12300232751581047 0.12174930486918285 0.12029371813419722 0.11848336990842621 0.11692687275861706 0.11585975064931864 0.1153132857251097 0.1142165877088621 0.11240259726978531 0.11059031114473794 0.10918621113968341 0.10754073708807149 0.10543543780104507 0.10273061676097042 0.1000156651257136 0.09777435747928186 0.09585934324103806 0.09385055329444082 0.09186097391104489 0.08938312620576097 0.08709144038485768 0.08511661290740241 0.08356694530073448 0.08232576000010326 0.08112002887609707 0.0800957947416515 0.0787713395156176 0.07781799324548058 0.07683766977046007 0.07572305840234102 0.07485077769530794 0.07409029198614986 0.07287473388057807 0.07104616651602977 0.06914695568477433 0.0674139845886931 0.06561927397915543 0.06383724346939147 0.06246212088618306 0.06133107600743751 0.06036413922856628 0.05965791271323044 0.05930731058395193 0.058763734453441546 0.058124368295170134
