0.1935073454232794 0.18947877511226882 0.18744377147373328 0.1882548796691971 0.18522869392301144 0.18478207679961303 0.1856889069782115 0.18669684058703417 0.19150342281008023 0.1962065001194277 0.20191330674760366 0.20757753610515547 0.2117513267377175 0.21518771385243662 0.21855214646902263 0.2224018634242837 0.22593486987434705 0.2303340510753938 0.23318410232972045 0.23788997511892465 0.2407600909898471 0.24102575058307749 0.24272276655705946 0.24495339091830526 0.2366774194970962 0.23117234438284776 0.23025185323460612 0.22825818112959306 0.22593307092550888 0.22401444503090928 0.2221604698700741 0.21809976542349147 0.2156796282134841 0.21432263418791786 0.21119476501136736 0.20647832250819734 0.20233058020834224 0.19492123538365688 0.19183461643490132 0.19012762165329047 0.1886635611622921 0.18909613848788182 0.18453983435754862 0.18204142466302028 0.17697739037642707 0.17505020458454648 0.17372336987876263 0.17174028915207973 0.17048900272147985 0.16695880510075833 0.16476133317129962 0.164752983816001 0.1650196834412397 0.1653618087869587 0.16672697264108446 0.1674347083633261 0.169796640343202 0.17359134911406168 0.17183298869583363 0.1724622388476691 0.1721928687473011 0.1709760765011429 0.17201408665783777 0.17109410285595114 0.1698103918839283 0.16918202432287657 0.16864004174918162 0.16819589972489682 0.16702821589958436 0.1673944297658812 0.16864559891862357 0.16705416186548044 0.16423222286284644 0.1631040145141847 0.16607833150414497 0.1678822683005831 0.16561254054886143 0.16448998259611153 0.1642282703705854 0.16562371053187594 0.16454192674492218 0.16034160483889137 0.1573644406956985 0.15497536988728983 0.153010181013754 0.15405845272081456 0.157860130776963 0.16050616544884364 0.16402009897374942 0.16636293176962522 0.1675801076126696 0.16740579832226524 0.1674170136095706 0.16717037611999555 0.1662272565864652 0.1655478527975164 0.16323227567065565 0.16208498897949103 0.163250782424205 0.1642119409207985 0.16728111897585984 0.16879399413167354 0.17143386153212062 0.18075285099036276 0.18983454909955175 0.18746836573806114 0.18924395659397714 0.1898450184931201 0.19073258656520284 0.18760802806688714 0.18586837678142648 0.1885146324843198 0.19042591768830822 0.1876494561454463 0.18763700643510964 0.18415578257360019 0.1800127559858073 0.17795584330712222 0.17346065049222914 0.16977809668054214 0.16697350749238968 0.16283746082099054 0.1617219422629198 0.15856277031268023 0.15710659795694307 0.15506445839013322 0.15695205094849066 0.1571849175633371 0.15859853940833132 0.16224957708642201 0.16343501568562493 0.16722248269458412 0.17628527029167657 0.18480256756383012 0.18061702158152526 0.18008937921423177 0.18187185708043188 0.1846179094360136 0.18690727672437138 0.18591636610387155 0.18611630895503026 0.18764424371084604 0.18870609916010916 0.1834078502225543 0.18067389756907998 0.18088311620911202 0.18061390242860373 0.18255095281715827 0.1856294602196902 0.18671487759045777 0.1829704885083763
0.18735568673863837 0.18416919561654893 0.1837926611738739 0.18308775630000845 0.18351009008012947 0.18285276322813487 0.18253416937967756 0.18451465492990998 0.1875898618096574 0.19228117620836888 0.1997447935560777 0.2081814964470868 0.2130723347459882 0.21632355631751368 0.21846712270002472 0.22178255005516914 0.22449016808169245 0.2303870867573374 0.23227321792575756 0.23461198059514488 0.23780390519569944 0.23935239286382878 0.24194116915068103 0.24372700830166294 0.23847571817082122 0.2385159783827927 0.2359479168951886 0.2338623145142989 0.2287530616085638 0.22607017419141073 0.22658058168739326 0.22344441558646358 0.22107369197521914 0.22063843854148193 0.2156060007830283 0.20934104855938448 0.20501227760473947 0.20004810551440183 0.19540987198411217 0.1928903714518551 0.19021486274400715 0.1892227414880342 0.18541076603590217 0.1815265634540014 0.17715909484041073 0.17567212034737267 0.17513653490036205 0.17438535483069573 0.17242969400409955 0.16845136914997735 0.16664870458306408 0.16673941203154477 0.16708882029285507 0.16694206623690827 0.16804356309781276 0.167414025598632 0.1704763621942001 0.17511927610341005 0.17516500407764107 0.17513631763073267 0.17409964160788646 0.1727969739841451 0.1726276101272017 0.17158609475952602 0.16979678773896092 0.17038794767451781 0.17174729612884065 0.17004161975203919 0.1705642411763716 0.16941175766244984 0.16853191644507273 0.16691320766897574 0.16389732894826212 0.1642408682684958 0.16603076202434874 0.16515012963499276 0.16461060670559313 0.16352112800254442 0.16166458213982035 0.16427502270988922 0.16418945160870116 0.16164172154254636 0.15623970511700344 0.1518409910854106 0.15059110375689672 0.15258846577175966 0.156196000333397 0.16040953758356913 0.16062848253202047 0.1619707220654619 0.16470514973094735 0.16532894642321133 0.16602361051012604 0.1654475970757326 0.164022402248726 0.16421499719711735 0.16171947598272182 0.1597678371104837 0.16233750484138276 0.16463001616197198 0.1677027912196548 0.16805540947470268 0.17246917054866678 0.18248609386141962 0.18914821196752626 0.18498982839228764 0.18398880161050685 0.18812735023466517 0.19025124736531313 0.18681118791828916 0.18577763147194362 0.18673019526986226 0.18886008309302804 0.18677733432352073 0.18622354202917552 0.18611299127481565 0.18343961147842405 0.18061239849107955 0.17825104470208325 0.1716371105335912 0.16556152961641002 0.16145004437865565 0.16150716429033632 0.15731580599961054 0.15658354079714956 0.1568742155339959 0.15713480797115575 0.15745905821783573 0.15858559936463373 0.1628753016323154 0.16446218404123064 0.1684972288947389 0.17606438237470282 0.18216597957382558 0.1825983572684994 0.18004715342828115 0.18368321818746236 0.1848557055057949 0.1845206097496337 0.1840626872642858 0.18399597763423892 0.18661459794568075 0.1854897496090752 0.18170776018228074 0.18279982686315047 0.18296247700077706 0.18195670798088223 0.18656131169927226 0.19474320361814307 0.1911226491971031 0.18821147209825453
0.1823890566294168 0.18271250704208883 0.1803804033163374 0.17959661849770825 0.18171410320709325 0.18130552067769237 0.18146001848221924 0.18600541937721377 0.186718516965126 0.19072073996105474 0.19744424147598907 0.20767677704379567 0.21143688613170666 0.21525703386651837 0.21894315790306734 0.22012362250661693 0.2236801377506819 0.23067859313769723 0.23415854070828454 0.23531438111019795 0.2367710742459648 0.23948505152145758 0.24159845936241647 0.2418494174179057 0.2432430938202632 0.2516054332925078 0.2480940948765443 0.24247964712561287 0.23494419809791162 0.23618042338387774 0.23317894906084363 0.22629781967444096 0.2259524091256628 0.22501975728937268 0.22088830416802627 0.2129850482403772 0.20786752823715776 0.2034442966266435 0.19802348873172668 0.19464987978457052 0.19161562418661057 0.18787303928443624 0.18702201878871794 0.18290500176542532 0.17920699216949426 0.1770049968138943 0.1774547563877295 0.17760209335140079 0.1782917699536925 0.17396373532203174 0.17166879752426328 0.17070437511438158 0.16974021425705957 0.1706959803763547 0.1718327515244963 0.17385194006148427 0.1754477966663482 0.17988681149859773 0.18001648281135652 0.17694849180858133 0.17563782466541003 0.17434466252933412 0.1731924727379789 0.17308954935326526 0.17250627190376022 0.17191112578528914 0.17188696023727398 0.17116610328346832 0.1723614449583455 0.1742071601246587 0.1721820637165888 0.16960080826617657 0.16756419556086813 0.16572200144086155 0.1666426743862318 0.16638777785483294 0.16561766429902847 0.1621602600687162 0.16111543041227952 0.16165701144966707 0.16409282872683303 0.1606824388255974 0.1576491847970207 0.1554132767121999 0.15483213622845945 0.15554847400148042 0.1579279185063866 0.16007084788168324 0.15864659489479585 0.15741035565243655 0.15845515996896506 0.16140050426567445 0.16418641225082978 0.1646317019434304 0.1639476587929637 0.16502519333672075 0.16434802898058615 0.16462223885994534 0.16366244164631985 0.1678290842676863 0.1699735282358522 0.17067656264906553 0.1738258901162261 0.18001293549045314 0.18438160076152021 0.18503536393956166 0.18729300170068447 0.1905608006183337 0.19037389189173773 0.18614586315532627 0.18539241459237485 0.1852087899431103 0.18731108598381307 0.18759319453891043 0.18514082688374459 0.18608754390990523 0.18765967959176194 0.183655102103308 0.17918021929800318 0.1766050165236514 0.16912485086423606 0.16197920382177913 0.16115352381062384 0.15874038074136776 0.15631689168003796 0.15534703681394524 0.15823365627410924 0.15977919135003035 0.16112105763020723 0.16534818173846877 0.1694705304965661 0.1716116972426462 0.17567830531162135 0.1812522192578314 0.18384638877591877 0.1828695213663558 0.18307081393038901 0.18168749862023634 0.17847775749252057 0.18065640507621308 0.1794107869491104 0.18022242867133997 0.18086311017487994 0.1800291782265854 0.18105923748541622 0.18029455355861562 0.17893581115084764 0.18419190419289563 0.19170317660193442 0.19293647755094773 0.1935162363532983
0.17901052908887785 0.179514218271565 0.17684327316396156 0.17668549521739205 0.1781965530759475 0.17972425598575742 0.1809657682712893 0.18386033841437904 0.18699844790029965 0.1903447916506216 0.19638281888361347 0.20269472872895072 0.21015097944607206 0.21614400462729624 0.21958631350956673 0.22067595764486359 0.22436620775987745 0.23046707973831396 0.23463806654240496 0.2357511642659064 0.23854360011133238 0.24157858302090818 0.24614381239889824 0.24628046780135399 0.24705091377759458 0.2547655915930207 0.2541328940210952 0.24383601122906787 0.24137817615060334 0.24263117381274862 0.2365063379153533 0.23047186195707625 0.22917337807489874 0.22637511196711407 0.22337105588515468 0.21679807093805828 0.2105084603357146 0.2067796510134719 0.20135942611912322 0.19829721579198778 0.19322026211912705 0.18949045018072602 0.18742853414931807 0.18551747100882604 0.18318242036535157 0.18275355187602463 0.18393721498411947 0.1822196789134565 0.18227773369998052 0.17920864716476995 0.17570111648268422 0.17467935330086448 0.17399506521784214 0.1752150903891884 0.17773706893043012 0.17812503407440775 0.17948236981551724 0.1835635669201349 0.18186643626083449 0.17858337408473968 0.1777612769460566 0.17590622582871598 0.17627385623421582 0.17502745690410712 0.17575593264453465 0.17824211464275722 0.17434274246095804 0.17194378474136224 0.17200032639009263 0.1738121492970353 0.17346224743646127 0.170871857168159 0.1675955499386005 0.16780132675965925 0.167624770590059 0.16696277843648857 0.1656937049336292 0.16406144342197979 0.16245684777424654 0.16223444899238884 0.16448976238884472 0.16127696134937033 0.15887292520880225 0.15743002605767314 0.15635814743123613 0.1568273328843548 0.15754810435283106 0.15875321698182812 0.1572471436671772 0.15575069300332256 0.15623972227764127 0.15980692283920742 0.1619651727208752 0.1622668831478999 0.1637952413379666 0.16377518181449072 0.16464261725364435 0.1702270917290858 0.17202491338421513 0.1725645060349387 0.1738178230874708 0.1753437081930587 0.17810595137866028 0.18049215520309292 0.18344636684731916 0.1895335852369303 0.19120738103179777 0.19415487967624118 0.19182479411474 0.18683660697478197 0.18445296934503885 0.18587481532925665 0.18962974167512384 0.1899391426100027 0.18894623054595144 0.18676149421393323 0.18743204818970824 0.18612299900859405 0.1831219298392876 0.18091862624561877 0.17832226078812263 0.16937216109749828 0.16291936972335785 0.15976293007424916 0.15694998254636214 0.15690442734849422 0.15983837632670556 0.162132524646351 0.1649075556986568 0.16690687109389576 0.17129164134911634 0.17328859939578448 0.1750519377103214 0.17973730053830358 0.18212371303877561 0.18173882925201593 0.18045030713491841 0.17692750337422905 0.17709573740330534 0.17859595379488377 0.17696964977174764 0.1759962339323784 0.1742893593563945 0.17451213383883749 0.17755571010860666 0.17872239949516008 0.1784502292716619 0.18308085114986267 0.19117371948801923 0.19464690119254427 0.19777816409402468
0.17569451307485418 0.17542597059798712 0.1743294801223417 0.17549765821910973 0.17646341553278186 0.178440173122157 0.18046074519641384 0.1830805090829889 0.18700313553642278 0.19139215491699305 0.1967843404690169 0.20307890152749 0.20889988107656285 0.21861037837195768 0.22100529267324723 0.22385214137464354 0.22769613534501545 0.2325891195032059 0.23582313515091227 0.23811242867722593 0.24157051848807073 0.2452570473259894 0.25067069513403534 0.2500778352567645 0.24544684827738644 0.24588528612131105 0.2502619661908063 0.24421409435237199 0.2422508436133689 0.2422511660167613 0.23579205952770219 0.23289679712668845 0.231633746403873 0.23076006301142746 0.23018590924981153 0.222728819423357 0.21489888932774545 0.21037206064953837 0.20764658794316462 0.20115727379676043 0.1955973377260027 0.19389923254263505 0.192524330947372 0.1898470923582462 0.18826423312617294 0.18745793880929942 0.18666345032707587 0.18510156965448935 0.18321471651477345 0.1808412899307366 0.18106693605018903 0.18028651561567513 0.1796585861564787 0.18165229829627055 0.18413761066538878 0.1831859440950765 0.18348335429291773 0.1839145921778262 0.1798447975166863 0.17839684031885944 0.1805572212843735 0.17991511540300903 0.17984337901464395 0.18149323162398504 0.1795584404577 0.18289502619867642 0.17546175026553693 0.17163136629230624 0.17000957217546755 0.17136310072569474 0.17331379199699884 0.17005959148362568 0.16879886324908666 0.1689526825283977 0.1684464156195637 0.16713836133428397 0.16688094355365857 0.16683712840689255 0.16689449331215941 0.165529354081089 0.1633433781962877 0.16053741666742896 0.15939221265327871 0.1641009880040303 0.15985193806268327 0.15757763877777495 0.15722976131466687 0.1576297432580593 0.1574714988896673 0.15619919334145155 0.1569595153854025 0.1600561825796389 0.16230017700413996 0.16229430713237888 0.16417668889165613 0.16471529042528849 0.16397175128708072 0.16685518868535387 0.17553750929007517 0.17895764308518197 0.18044999930078767 0.18375947695766462 0.18718581564641945 0.18747233743902722 0.18882621974962413 0.19219573271882626 0.19863630978479616 0.19660244876362554 0.19372030454157677 0.19005910478889157 0.1889666846794427 0.18896626724504795 0.19301924158529463 0.19647552705225435 0.19900424917963028 0.1914230449205244 0.18887294175368144 0.1856067557794399 0.18170843293033076 0.18253236202684145 0.1780088870250682 0.17224820918115147 0.1676321615281989 0.163065582071786 0.16151020180457057 0.16138775257244375 0.16256600613165742 0.16550919285236543 0.16845668732333088 0.1693641675570759 0.17250435818166798 0.17111756555039193 0.1727592027968524 0.17460502466425584 0.17549637579028576 0.1758509138301718 0.17841456478927642 0.1752640838822971 0.17393473213628172 0.17204523881247308 0.1725964977000688 0.17167890409148226 0.17084757134747644 0.16999796192067979 0.1706057633584056 0.17314046190486446 0.1759602891007261 0.1781877103642483 0.18402685417707512 0.18807636234663333 0.19250394413580887
0.17211847163101426 0.17093929099148958 0.17029396399068164 0.17375166860609711 0.17504879863718828 0.17713465235266732 0.18050030310991386 0.1839825757281903 0.18817062136959392 0.1924186844713744 0.1970633473913717 0.20215506821086038 0.20826654994988164 0.21644721600770994 0.22244356759695438 0.2248754695161393 0.22903292099511635 0.23816588476460582 0.2417642469303136 0.24219051021772456 0.24904146108577527 0.2469975525738311 0.2501839787219054 0.25251570289694153 0.2471284651295371 0.24274322077034 0.24629896171807525 0.24351772732632476 0.2419307781078489 0.24201944346253498 0.23850804595292127 0.23507475272282088 0.2363212256447785 0.2387093420472754 0.23736724918558832 0.23358189129841336 0.22589704620219267 0.21774121328743465 0.21462879698755638 0.2064560134095935 0.20154598457775233 0.20046358351257781 0.19933380952600702 0.19633402641038847 0.19353616164600856 0.192881770113472 0.19204139107502521 0.19042295701008866 0.18864509337315072 0.18980556846430183 0.18821316023323936 0.18968578513098047 0.18927670052119633 0.18756206044479798 0.18819453424736127 0.18781293170292584 0.18931005282461183 0.1858844097071007 0.18277070571692927 0.18050150950209667 0.1848144369046434 0.18368676763023117 0.18172341586058435 0.182245112053591 0.17933585388660472 0.18022017680476535 0.17561455244133012 0.1713601203008718 0.1696985668075378 0.17028135602157782 0.17313813496065794 0.17108679600138438 0.16942430125789423 0.16996684875017523 0.1693254803130117 0.16776744322879603 0.16998710559313088 0.16963587941075794 0.16930079008524038 0.1685247533694372 0.16406837499509325 0.16318005872969646 0.16521789629389952 0.1653137503921763 0.16040863444230205 0.1579720783206626 0.15642277197423662 0.15841642507369322 0.15829728189909492 0.15903252362573198 0.15917244687524745 0.16152306492146046 0.16577423999195004 0.16452595975874157 0.16514674284429184 0.16282676345586622 0.1631878948871602 0.16660581309060354 0.17722683826577496 0.18157807459172928 0.1854971562293809 0.18688724506548954 0.18785128347979335 0.18999772139653692 0.19337419133341732 0.19527743836134775 0.19670001802656878 0.20006234471057938 0.19946872627261308 0.19752109152568736 0.19866185258115304 0.19194400157228422 0.19359300153914427 0.19814875670714296 0.19774955589608656 0.1946346413151491 0.18971197757845532 0.18156412090908583 0.17669584495410381 0.17463181462008007 0.17413866782411383 0.1725716586865295 0.17054665774665506 0.16631036474825706 0.16629116412870612 0.1696394089480642 0.17007878734755721 0.16841149981681489 0.1688582234260801 0.17028198791749136 0.17061953652419015 0.16974282320720221 0.16999297641531294 0.17011286716891658 0.16983804334593114 0.17139180646992716 0.17640365920821016 0.17696952331644725 0.1740954328085476 0.16850538737863674 0.16378177288580864 0.16241013849057656 0.1623368120571743 0.162576060676931 0.16507713807127675 0.16912677216654387 0.17311425830747798 0.176859746612241 0.17991740694820968 0.18511806546769013 0.19057135403700323
0.16822387930238275 0.16798223012252672 0.1683577360763108 0.17154373355359093 0.1729733333332575 0.17646805747121738 0.1793729663812131 0.18347059996928733 0.18836368082461216 0.1929261949859736 0.19779714933849538 0.202498084377695 0.20792448247140793 0.21542951187667925 0.22156638872042825 0.2256102287488963 0.23478205720501846 0.23580190759900438 0.2387444570712477 0.2480801756238597 0.253719472764063 0.24951888381650328 0.24940857467498045 0.2525345820242393 0.2507369387930316 0.2477359484558145 0.2462942296046401 0.24366613832149223 0.2425595522978166 0.24342284578290327 0.24517099165021372 0.2429362868031671 0.24402120182213333 0.2454420440928251 0.24541584538880212 0.24451287059652027 0.2360405118699071 0.2294595931378841 0.22293035559703714 0.2145856923915502 0.20921565360404748 0.20641333932561037 0.20308411277915248 0.20036304346915396 0.19940928190435175 0.19794400970419176 0.19732868400121442 0.19683201128549915 0.19664809349696527 0.19763894058368367 0.19489536575363253 0.1948684956481116 0.1944092811331628 0.19250010899524933 0.18908735743453828 0.19264561278999207 0.1943559787576329 0.1895471235119233 0.1872584351042273 0.18607286588925673 0.18508424414504207 0.184891522317527 0.18368975171890717 0.18159125895547654 0.1798359743280283 0.17926226022592623 0.17586365873013815 0.1733854680212746 0.17086194155887818 0.16962386965630263 0.1720786359584458 0.1725110677390727 0.17344948942897614 0.17127973056089063 0.17035931341336472 0.16963388354638723 0.17689292813628765 0.17772500964783622 0.17468523881753104 0.17413852566779423 0.1682869160466393 0.16583054181627374 0.1679970964466393 0.16445097239894196 0.16117219430589286 0.15950161381461436 0.15874151716609738 0.1583793914827396 0.15945618713320123 0.1602969911716872 0.15939632883785695 0.16296738758940807 0.16727000208674914 0.16820793354323554 0.16701345776791032 0.16387149553035946 0.16429887493606282 0.16859447110286782 0.17767681232586785 0.18453367116381295 0.18812921882788297 0.1863115544480301 0.18788074691111425 0.19161678148194392 0.1943157508110262 0.19654281827116402 0.1971473039039273 0.20060010455662555 0.19986121804283657 0.1990591186712824 0.19856464954073952 0.19533306805276882 0.1976545977926714 0.2000340444023927 0.19622478809614863 0.19398770458825865 0.19126568120094256 0.18127653448255462 0.1747272997703624 0.17207883874395793 0.16963139584388648 0.17253650237748497 0.16988260883987025 0.16525569223092781 0.16795536783211454 0.17070806098655958 0.1723401667886223 0.17376013855433256 0.17031035645917839 0.1702675360965331 0.17120649716518432 0.16719780586842692 0.16820402356170072 0.16978530973215566 0.16863050430162949 0.1718684833228593 0.17249845440969863 0.1732592683076424 0.17061613858086436 0.16261214022220186 0.15894705962875225 0.15778452129206597 0.15770658730472692 0.1589934998230049 0.16128460301874534 0.1651695207738201 0.17427845298692649 0.17897246365003683 0.18112226952138857 0.18382425533877064 0.1881356600568384
0.1670085906342292 0.1661819494391938 0.16689146234473368 0.16978434110952376 0.17291571631921832 0.1773695073728734 0.17778218727218997 0.1813981255475554 0.1883815848552211 0.19350900438842525 0.19804454004644803 0.20248874079657478 0.2075266368666811 0.2124760457336168 0.2185656125771825 0.2270322591683506 0.2353644842948931 0.23570352314222787 0.23789223355608038 0.2445382858762768 0.24662422245003424 0.2478927550664436 0.2483445002553171 0.2494427884175265 0.2489025959105521 0.24800860321491866 0.2455428210004251 0.2442267974463114 0.24311014108129012 0.24176460363192925 0.24477074668415705 0.24586428941204977 0.24825467371236523 0.25415584739107167 0.2565229940806577 0.25188401675041544 0.24590008163525 0.2382212006004048 0.23043001818934605 0.22128061218757986 0.21743794952998494 0.21227289954274156 0.20895432061718372 0.20740406830801572 0.20712700739129006 0.20549114846151917 0.2046529913476268 0.2037216911099405 0.203693510677138 0.2034972321768266 0.20335012057094562 0.20207980841983686 0.20199876010837448 0.1991928409928963 0.1973934817073605 0.1981578212061966 0.19624167766606448 0.1929099245144556 0.1904144042121165 0.19013945949813454 0.19057570059530296 0.19069933100873815 0.18729901444051025 0.1844758421868412 0.18191873659447522 0.18102779156672594 0.17796686267354847 0.1748113569213838 0.17236541147040038 0.171266125812898 0.17445677348306898 0.17366575523668876 0.1733912612118445 0.1708900734234155 0.17136345220426238 0.1722784595219426 0.1765739809925373 0.17744152176133643 0.1760046087827739 0.17601220761273617 0.17071575256165838 0.1666480329276717 0.16523824745089102 0.16358847788504188 0.16200135039047048 0.15891639620616896 0.15990028904103898 0.15859481673424036 0.15849782888589065 0.15910525838271355 0.16112664807662644 0.1670385950909027 0.17232562022386588 0.1724943193277072 0.16981719674245238 0.16464318679858408 0.1657210837922272 0.17121681475205403 0.17983831746706996 0.18908700573757395 0.19416438698127522 0.19007824079527888 0.18774124741770973 0.1947283759097454 0.1957635632096547 0.1969439890765536 0.1980498446675077 0.1975885921884766 0.2006341274654414 0.19853728952422695 0.1988183688432508 0.20378114295668048 0.20138391249642992 0.19702892484927775 0.19356296344216511 0.18891447633707276 0.18956878117301676 0.18376911347027136 0.1784195698550644 0.17353550363070938 0.16759857096470873 0.16548527561924453 0.16581091300099438 0.16373312147698516 0.16876262438153486 0.1701638422638229 0.17059381263479304 0.17276994074235594 0.16796941984072325 0.16871032142686798 0.1679136290814942 0.16533616141724164 0.16797479145545943 0.16951022069220997 0.17032668452599276 0.17116942138291383 0.1714766280966553 0.1720791906092629 0.16655339363975522 0.15982613310864902 0.15705215852352827 0.15481198841570953 0.15455749684461353 0.15591116213983816 0.15828157569947188 0.16302535377240224 0.17217893777051826 0.17784169822826928 0.1823143186949624 0.18217224934396475 0.18422479249421247
0.1683519114111431 0.16678093392971066 0.16692301166785306 0.16924543215029436 0.1730434172389954 0.17726018142744554 0.1766282823731105 0.18026854366298564 0.18901698630157937 0.19441997563320926 0.1992126162145333 0.20322746794973404 0.2061374833000339 0.2101449835895685 0.21848020418242314 0.22715926686211924 0.23414024264786895 0.23726118461412748 0.2382168225245608 0.2409183163889456 0.24362554883413293 0.2445887428404136 0.24455106936389873 0.24910582970091985 0.24812450471470696 0.2466525286007152 0.24598032774799555 0.24531838778109843 0.24398234332885166 0.24198815348681807 0.24203871804618673 0.24493731768447996 0.2495045389516287 0.25883996729067343 0.2589317770476104 0.2582591752991211 0.25326040610321376 0.24464712785604345 0.23924829343495366 0.23073966600903034 0.2231206579275883 0.2195816190541223 0.21729655568389575 0.21454012078619913 0.21268730477266534 0.21098695287662833 0.20870961949601338 0.2055721425825632 0.2075228058481401 0.20670031676176467 0.20748314100350568 0.20858146936423727 0.20630029532983105 0.20336405198095245 0.20661067826632126 0.20707361754490425 0.20185359029019387 0.1989202953083965 0.1949086721683164 0.19379576473196128 0.19676719737460147 0.19714261212519293 0.1931245094195831 0.1881689888114931 0.1857359313438138 0.1829493959755263 0.1773661185449979 0.17379998483058923 0.17337967320251518 0.17407131421596872 0.17346395800286088 0.1684461406232533 0.16775028387453847 0.16846496155407945 0.17232657277389693 0.17374715696199963 0.17400968633981176 0.17423226639663048 0.1750060420268372 0.17526145388124778 0.16971348309047846 0.1647032159693971 0.16497417212032886 0.1639171321467863 0.15978226606748142 0.15986079255806426 0.15923393220305576 0.1582313030768466 0.15836069211516451 0.15979645473998855 0.16423547654358708 0.17197877829403652 0.17108910091022222 0.17067354053205647 0.16835708154551643 0.1653503186811395 0.16749845759991827 0.17463061165811142 0.17971756462820232 0.18509381365683097 0.1927285752565846 0.19396412723668335 0.18961251691968684 0.19415619483003269 0.1959870628640935 0.1984654234792238 0.20184222863323145 0.20628239547813487 0.20467318935571496 0.20033289648859354 0.19769628969831296 0.19865052387670915 0.1971837962682691 0.19577022978674294 0.18854244291007205 0.18469588293788297 0.18394955923881506 0.18120993496157772 0.17699874196818943 0.17097913443848406 0.16500884654082196 0.1627451988517518 0.16228894461908525 0.1612469686521195 0.16496278934570374 0.1684994262182746 0.17002433372756745 0.1716328444877033 0.16601779494594854 0.16662044634104572 0.16527615120633757 0.16671682226174359 0.1685995509507625 0.1704421987038172 0.17424747618975714 0.17525988164248552 0.17090880958049443 0.1677031809071239 0.16129583591845628 0.15815090084682507 0.15495045522349377 0.15256756328607446 0.15233392006205854 0.15340087875370118 0.15634192334289357 0.1591923169305099 0.16603954576089508 0.1748537482919292 0.1793594154225104 0.17985652660210322 0.18144601536506247
0.16825302075940252 0.16693292580897479 0.1670101312337555 0.16949383309372504 0.1729265153968872 0.17616959390555953 0.17741697370006013 0.18259851461523907 0.1892183671993232 0.19489552321628748 0.19926189808965494 0.20284615790903401 0.20644679243521533 0.21053727516529527 0.2189566338933476 0.2279801632020368 0.23348191534550833 0.23588215920905756 0.2382314723398981 0.24004123698431334 0.24106741542029184 0.24448207227499302 0.24608739730874735 0.24653188533185966 0.24704887711570173 0.24708070681711555 0.24739787660399293 0.24765498904629427 0.2469884687150151 0.2452602510583879 0.24522279198871816 0.24821565838765375 0.25570938477981436 0.26434386364137047 0.26608664997074777 0.2639321203366433 0.25509969715269704 0.24867626180783145 0.24665760411029664 0.24038532559285083 0.23312744917323944 0.22880514366180182 0.22329818265350107 0.2195120299765828 0.21692709633823837 0.21580054558286493 0.2132204690332201 0.20821244292876234 0.21140693988459694 0.21052067351085538 0.21044412051704298 0.21111773019738886 0.21092535128182438 0.21273087194046997 0.21601607474259552 0.21262461526341883 0.20691341623158768 0.2026788963028246 0.20056521739893346 0.19999547736043108 0.20072424503711306 0.20139131686217954 0.19880575409528442 0.19673380858444778 0.19160821539516337 0.18512083176329433 0.17766723272330326 0.17366499107664915 0.1729531792585076 0.17402732987394778 0.17411450165808512 0.1700813830028056 0.16960631176388669 0.17276447953611648 0.17358028581699567 0.17334358373492872 0.17323003554776248 0.17355903615100737 0.1713376818965556 0.16597672935160418 0.16212538287845635 0.16116581350810372 0.16475387381043782 0.16418436860002647 0.1624090077115737 0.16163265349427428 0.15963649341621167 0.15730887768504084 0.1572853459668657 0.1599162668993791 0.16590502430641962 0.16936232106463603 0.16984414605586612 0.1710545423821607 0.17040489979102455 0.1676746018157104 0.17097989340807657 0.1756167554099219 0.1808066665134405 0.18510970888046713 0.18732656097116776 0.1904018310146716 0.1919642143217208 0.19616281070855776 0.19840493647296248 0.20014271004593945 0.20923081040535818 0.21541628590603457 0.20287041689196722 0.19856787853894034 0.19344106655236948 0.19355316347697318 0.1942589720456379 0.19367646200970323 0.18674230108624654 0.1825847750014119 0.1792455325989103 0.17451306360163293 0.1725694323334159 0.1653876541218005 0.16166366590371353 0.15941974826756486 0.15869206021667007 0.15944178203497725 0.16021136670360026 0.16332995961872715 0.16590123939602394 0.16435504487003402 0.16347858322057615 0.16336368600928813 0.16417850167918221 0.16715772638022078 0.1694070882362964 0.17259669448084033 0.17210069465764116 0.17438946583871703 0.1731640990480293 0.1657922826950338 0.15871681774560942 0.1553705416284495 0.15254776489344749 0.15106134867607118 0.15129617137600787 0.1513142470278554 0.1535256026833916 0.15708956586988007 0.1613442611134421 0.16924634222893686 0.17645687032333 0.1770064550844807 0.17792000327348736
0.16682442171014014 0.16629989793932423 0.16750378934596444 0.17118942433590367 0.17471865804919262 0.17745409635658002 0.18018354538973463 0.18654239526298694 0.19206745751298146 0.195108153559083 0.20171407792195648 0.20405952010347658 0.20818805571603644 0.2127415666610217 0.22117629334126293 0.22630476982915707 0.23339164833000017 0.2363604982121302 0.23996373116907832 0.24047966376194904 0.24002413156310312 0.24237472556990328 0.24437216718140548 0.24547060838338605 0.24819919101443824 0.2480977415585586 0.2496508033021367 0.25421381340727595 0.2540028514613726 0.24995905989825973 0.2533119533508576 0.2505470837910105 0.2558938217487798 0.2668117171205546 0.2698219093638325 0.26609838020189686 0.2620483879363604 0.25691064838565203 0.25577415838151446 0.25043480708926685 0.24562588694881698 0.24006584369845815 0.23030687052212157 0.2250028791510204 0.22198284738801013 0.22088764718026052 0.21884008104998087 0.21659241731908085 0.216313280302312 0.2150566547275741 0.2158277101212879 0.21618537067595764 0.21634315324402584 0.21699354448200603 0.21507956195031586 0.21402483185981125 0.210885364738044 0.2069519249877524 0.20673905527836642 0.2075502317171592 0.2085297312040494 0.2074328885864695 0.20490481020286674 0.2020781957767001 0.1956135009865818 0.18957759959983767 0.1821420182401547 0.1778063249517909 0.17515137721172452 0.17479498364825324 0.17641429258624006 0.1760064689283374 0.17638759256136036 0.17606149360380086 0.17457388248440836 0.1737788345517336 0.17460786410172371 0.17459219984137594 0.16789508109997148 0.1621331356328765 0.15878215093508613 0.15921545464547793 0.1633643301895279 0.16317209935474183 0.162776299477135 0.16271529374384333 0.16138331974718903 0.15811977076477204 0.15845813706673362 0.16181879882313455 0.16465795364046826 0.16645893949906204 0.1687210335151929 0.16867361779358603 0.1710560220112085 0.17091195335416237 0.17438901332005904 0.17996820744387965 0.18403378747438962 0.1901111257290056 0.19266662348134878 0.1922576651060018 0.1948321019232322 0.1982503149684649 0.20023637123944563 0.20176475455213422 0.2101843603888082 0.2106400728627939 0.20349088711006794 0.19380058657758686 0.19006667057547993 0.19137378884265455 0.1928979800943187 0.19286538062725975 0.18560386992650632 0.17903929715472067 0.17555986765938125 0.17132556745852678 0.16369604331446397 0.15971305483164405 0.15775618186193152 0.156584332802888 0.1569752139303864 0.15690699294610688 0.1581295376940008 0.1582439796231502 0.15914996242320825 0.16095518937359482 0.16158120506266688 0.1600191070921094 0.16018526864982702 0.16110234884886604 0.1633414321290028 0.16954684688658964 0.17269439933570102 0.17249425037868227 0.1705290854962189 0.16329542327133614 0.15732243011474473 0.15405799939243953 0.15311334919985986 0.1506118133135783 0.15006312994752788 0.15017596781059875 0.15177365932990594 0.1538356422611354 0.1576525303042903 0.16376054372351964 0.1684580252105718 0.17218907701746364 0.1761338552034743
0.1685426412337674 0.16808884110536315 0.1696250583788493 0.1726763073248156 0.17623764887782878 0.17999719494459543 0.183843528659687 0.18949687623818426 0.19443306927124482 0.19836447480748193 0.2037337510868764 0.2062667145325304 0.2103024734141633 0.21616278498037278 0.2193502234357478 0.22683372933203255 0.23385596947619497 0.23759247309922113 0.24088376138211728 0.24054380499880706 0.2403251334067844 0.24329168742363808 0.24522651569632592 0.2474970121218083 0.2488572688549645 0.24950264628470945 0.2516245387221825 0.2581497373681227 0.25885446408803137 0.25297259958774876 0.25210275183419106 0.2508810620830982 0.2563082081759444 0.2685671250939412 0.2723029411252299 0.27079476296351396 0.2689296680518611 0.26532854253768123 0.26617521195442445 0.2674618439856738 0.2634256738956257 0.24990072808843605 0.23820852784674754 0.23041006511195886 0.22803000398915954 0.225336419065163 0.22337684234314767 0.22188136704706 0.22192000760451797 0.22105558078007678 0.22163160222007916 0.22220441834974108 0.2237967045986182 0.22762322934366358 0.22608414863951148 0.22363276371226745 0.21791557999002004 0.2140770744740449 0.21467574259579292 0.21622290584386106 0.2184477629753062 0.21868535353147256 0.2135094280498287 0.20692079850911957 0.20004161223365016 0.19262064432620823 0.18715458423168416 0.18121739135103349 0.17812282073478156 0.17815783898552756 0.17946739365474965 0.17928957681068067 0.17936058655158169 0.17834015830829594 0.17756755562501517 0.17573070153013695 0.17577582101639097 0.17523746975719062 0.16791935178964096 0.16074325640053733 0.15776262448442224 0.15704641423994972 0.1600333866572249 0.16547408052468002 0.1660518797121357 0.16510466722569472 0.16696302506239502 0.16426047141286662 0.16403654488472935 0.1652401152120971 0.16580776581091267 0.16479556714480292 0.1662095467218969 0.16609469686722794 0.17145967590169567 0.17697118109502102 0.17924669786890818 0.18477289835255717 0.19041754445771067 0.19751999518307253 0.20150062724611176 0.19619344300484173 0.19567251257481413 0.20059348818603867 0.2021753135439017 0.205443874587734 0.20983865835220605 0.20713504300842106 0.19697114961813433 0.19063404548307925 0.18647813212610537 0.18555733087904494 0.1873298990075392 0.18541586708125746 0.18002144146805846 0.1727665191672002 0.16787025497962735 0.1616869283596741 0.15910718349048245 0.15507635169758374 0.15305119087198327 0.1519842701212389 0.1520056152519152 0.15206113478655064 0.1527777774864225 0.1534740574190942 0.15447716948417414 0.15715835716773632 0.15681717195364553 0.1551775860258879 0.15148547654278435 0.15433099986094723 0.15636560094063068 0.15999804478536103 0.16708860292793576 0.16902485257098201 0.16335836432508297 0.15748495761067022 0.1534780506070687 0.15289817336492154 0.15272644104374689 0.15197524396142176 0.15104495482371155 0.1506127700183998 0.15158218668094672 0.1533661631265189 0.1575173261488592 0.15933699188861625 0.16381926739012642 0.16767390757644118 0.17239894874122702
0.17054021837529248 0.17059929381305783 0.17274782878700454 0.176574435714416 0.1799075335859715 0.18253107732957227 0.1869308817922228 0.1937228122280472 0.19892574319864903 0.20194169310881124 0.20558722458139425 0.21026545212435035 0.21419692244526056 0.22097396706623984 0.22317864826297323 0.22977679184382066 0.23547879887202508 0.23757714031561417 0.24134473578604898 0.24147885343151976 0.24495021420415353 0.2475702782013705 0.24912671501101596 0.2500456473178265 0.2508705636340223 0.25183527704182607 0.252899685290819 0.25259688352254794 0.25437132884938835 0.25483293296263426 0.2570114301059674 0.2561201562288152 0.26064665724248337 0.27184783267252616 0.2770955755511085 0.2738890913453692 0.2739874139849157 0.27353724001513496 0.2845922958162321 0.28830529318951587 0.27421791967909664 0.25772848321389863 0.24296289180438257 0.2350195361898007 0.2335240716485777 0.23211000447859353 0.22783376943294728 0.22569936574826577 0.22547735973266722 0.22570632247077618 0.22557935402666063 0.2258353698066552 0.2331070996772391 0.23469730827766633 0.23514022640307045 0.23139151227631846 0.23036938560906903 0.2233474942990444 0.21858288745688187 0.22021811958705823 0.22201315694485432 0.21924404962840735 0.21668848520318731 0.21249198472470807 0.2066578946895345 0.1985478627630464 0.19179015733060625 0.18442689994779254 0.18001575902104153 0.1801162165539282 0.18078314592266073 0.18160799092723942 0.17988293950195852 0.17963740293245561 0.18041845578522228 0.17803120518412205 0.17827893934201347 0.17574569444151847 0.16868223438831642 0.16168785865307034 0.15894124101521678 0.15891455849973257 0.16303643937028572 0.16675923042202442 0.16883998424417201 0.16636533034609025 0.166869302540251 0.16678252775464827 0.16633508560080892 0.16636144152687912 0.16583406858250496 0.16201642852349743 0.16131222649784377 0.16402946027097565 0.16962807709100178 0.1750446018984075 0.18027489789359413 0.19243591163260984 0.19871981154565993 0.20169626093790638 0.20827478143755496 0.20265079773627412 0.20190881138613254 0.20384959837563035 0.20381999606394646 0.20498908327239512 0.2067031002990442 0.19946182318245692 0.19455633489321442 0.18883539644939237 0.18818716103526897 0.18231975336804687 0.17844062560653381 0.17385618487404048 0.17110146981734867 0.16326927839975452 0.1587948385265523 0.1559488027231626 0.1524415395442407 0.15035840126731695 0.14948965703665343 0.1486464540404244 0.14873875257576022 0.14692866768583515 0.14836285295946283 0.148388002054018 0.14940031556339434 0.14934359665428848 0.14698840390513754 0.14868757807261754 0.14896716447723596 0.15150614564296194 0.15443945038079512 0.15604439659903863 0.15817181321200646 0.16069485381577056 0.15672289102767908 0.15366335364585537 0.15448647636823384 0.15255446328069064 0.15271656956775634 0.15346926156309026 0.15358497445098387 0.1539449908198812 0.15366989159732541 0.1559186416617178 0.15714116205809128 0.1589148029699861 0.16057762870403833 0.16350633223664157 0.1675482520334914
0.17406657975899734 0.1746776182330628 0.1775037414294803 0.18134918165881075 0.18183756106714294 0.18404274331647505 0.1896127015485543 0.19903722697081 0.20507354835088135 0.20443883367324758 0.20783138033536763 0.21413656640729614 0.22178155855211587 0.22830603524707738 0.2304418824141644 0.2354185096952255 0.23856395088032475 0.23900169690490652 0.243429211166915 0.24657569472615967 0.2498432293524317 0.2539309337071405 0.2548647887962046 0.2532886330483753 0.25404192838635525 0.25538382791037806 0.2535621442573313 0.2524667095851603 0.2536538034809243 0.25576083622456974 0.2582958486810305 0.25918720504625065 0.2683384951646476 0.27450427845471376 0.2764967546157843 0.27440530101400507 0.2748195431071141 0.27945519006771813 0.29068387549456925 0.29733574503131793 0.2789861659030462 0.26076459054897566 0.24838593788258145 0.24098262037586793 0.23613713322275395 0.2354516592433831 0.23251537634520228 0.2295889195415693 0.2274641959613973 0.2285757292234372 0.22888290091257202 0.2317534592571167 0.2413621675408386 0.2399764080613626 0.2383621315289081 0.23651949007532477 0.2359111937088051 0.23119821385744566 0.22154563068787275 0.21820223139103906 0.21913617632670862 0.21970790163305443 0.22128712900256817 0.21693946781236836 0.20877206677422763 0.20336292514767587 0.19781305900857582 0.18930317898966914 0.1861046686388501 0.18285211784690844 0.18144498641321818 0.18073331495750658 0.17971022655030966 0.1807494348951516 0.18150877057733503 0.18112343300630815 0.18292596056345517 0.18142603074244415 0.17684432275368392 0.16852239453613446 0.1649143227569654 0.16559764338970284 0.16566322988117674 0.16653675468760154 0.16680430733043597 0.16580975776826126 0.16612997738151303 0.16644587930538135 0.16692823748727714 0.1666094486954721 0.16450675461164635 0.16288018263046947 0.1619161048535262 0.16403013579238587 0.16886485575317461 0.17723475568023367 0.1826265466889575 0.1894107154483575 0.19860704136536556 0.204247260082302 0.21012210982671897 0.20921765748434668 0.20863339065541592 0.21049087761814478 0.21103510604936493 0.21286442028965807 0.2162126970176518 0.20071840092520038 0.19320716377055236 0.18778806127994935 0.18666725286825725 0.1770367485762906 0.17070653742448638 0.1675592693042104 0.16129596932498555 0.1545724993334312 0.15205215106907602 0.14954254394495245 0.14716954643625396 0.1455429462405494 0.1447258025512539 0.14715662979023925 0.14605768366268038 0.14428534048358532 0.14348899105340804 0.1420766223475643 0.14304097713803673 0.144251341104153 0.14185456229815346 0.14412128002969063 0.14537173090945504 0.14753730270170232 0.15105756702044307 0.15085523281627658 0.15262654457158273 0.15440807079824356 0.1548538286791292 0.1559999324243022 0.15660406936065785 0.15680183350813426 0.1550281717471529 0.155751947518201 0.15533220740351508 0.15679008386869808 0.1580984830112601 0.15841667536511986 0.1564202368767413 0.15799999738355272 0.16205376129377652 0.16290132671175378 0.16709190532324536
0.17962856738407892 0.18087828982793494 0.18464970697925717 0.1850025046058016 0.1857237806115365 0.1878652229938402 0.19221567115532573 0.20205193496773735 0.2059494989987256 0.20688923591583852 0.2103841036954039 0.2179721568490286 0.2240400538471049 0.23044633359855232 0.23510893417801101 0.2418275099075105 0.2433528102077191 0.2404644153570941 0.24406844312734435 0.25051081302868106 0.2544982371984822 0.2598494003252596 0.2586125879285496 0.25648259925821815 0.2568474116845781 0.2565977277168545 0.2542515939512022 0.2533585988712308 0.2540036092029763 0.2520345628940851 0.2540028869075624 0.2588186770403851 0.2677299280860269 0.2729767052275081 0.27534741518554495 0.2748799533472341 0.2761757075335433 0.28075032026886665 0.283321399116427 0.2874324285871564 0.27616410057288454 0.26406806924123516 0.2529082739864359 0.2447665017720303 0.24135971828806885 0.24071418919786394 0.23622225089121504 0.23076111446108033 0.2281211249544989 0.22930785961881153 0.23151682997373557 0.2351489055467719 0.24519020368456168 0.24469019991480628 0.24273904482245828 0.23994622415849112 0.23649484026623427 0.23188412565748348 0.2208302224136982 0.2164529586898936 0.2174627856240504 0.21896029316917268 0.21621456076300932 0.2112019463327067 0.2060935657082728 0.2049515423654065 0.2029707175487167 0.1918818089629385 0.18782296751675806 0.18560490142669567 0.18336086721919015 0.18259972221247997 0.18229700327897277 0.18187002582847817 0.1834926753732513 0.18502801564619015 0.18445056268927798 0.18370969675560547 0.1827547710825366 0.17884234811070499 0.1724557061506722 0.1674208855337148 0.16561142805497156 0.1640842074887129 0.1652582131447276 0.1661129413076505 0.16571287725379424 0.16508761265983213 0.16742688027270253 0.1672688621378861 0.1630368074190987 0.161771971560642 0.16294317818859097 0.16671429153464784 0.16992592538855678 0.17733261984428775 0.1823013077315038 0.18913391170518146 0.19939316396128118 0.20937208676937455 0.21219650654516128 0.21632494042947897 0.21549145643947337 0.21564295675263914 0.22164433555740384 0.22336284239319953 0.22650525908068528 0.203438798393252 0.19253401304100354 0.1876153160258098 0.18095493860389797 0.17370725894672862 0.16563356397499845 0.1607487106716644 0.15484528440219986 0.14770568017106092 0.1461298488711449 0.14358358612654828 0.14167351823212693 0.14040455394917908 0.1407378427851977 0.1410477762543889 0.1404496224021653 0.13862654036561758 0.13625901096417076 0.13482246964819214 0.13677855525270152 0.13954082524676525 0.13895164509050198 0.1397384512161206 0.14125200333890317 0.1452778592014929 0.14459995293298028 0.14738073166786417 0.14782085926052715 0.1484658458914676 0.15251579481928232 0.156477809613051 0.158578874743879 0.15950758347006622 0.16065698851037005 0.15899070084462902 0.15859047438378723 0.16060433523278633 0.16033181353883427 0.15974323289495096 0.1574147221941127 0.15912910247436962 0.16059141186719647 0.16357107512422195 0.16781184131009869
0.18551260098237649 0.18739792594881044 0.19006606522490171 0.19056995972468604 0.19011720907512875 0.19263024056436384 0.19869811863060072 0.20574073025507583 0.20731020086898796 0.2106991333545622 0.21643360838745732 0.21978582123928686 0.2253750356568502 0.23327662008178263 0.23692304676213014 0.24146710094550514 0.24431033217396486 0.24568552315364012 0.24750043977838165 0.2523960031417489 0.25601777487104077 0.2588694377922781 0.2603247384586761 0.26083097721004345 0.26072665349569246 0.25914978974518377 0.2574699478263512 0.25865208357764713 0.25762392795309935 0.25518142406633765 0.25505984594609155 0.2600172256248683 0.26678750625430936 0.2731892333157666 0.2769028753523523 0.28000677277907204 0.28297974323641983 0.28770510963513374 0.2862685077700056 0.2879122769676334 0.2776218267558462 0.27031005972986066 0.25853963044706035 0.2514270904981394 0.2495066129821458 0.24693804651558757 0.244056382416854 0.23458455947999257 0.22970805561120825 0.22942806312859884 0.23165839397168847 0.23446714263116694 0.24194370689952965 0.24548463600817422 0.24905046490188343 0.24660773834835398 0.23621022233675204 0.2259274911073023 0.2140680872535465 0.21062682196585356 0.2136033929720235 0.21409019929241208 0.21371372394605753 0.2082633112861374 0.2053662245054412 0.20497423743588877 0.20238304440311036 0.1936292026777245 0.18768304706176056 0.18672364948135675 0.18583211412933476 0.18708153944100905 0.18511808322111492 0.18354941826478366 0.18403441531354195 0.18497920943454313 0.18367213111822644 0.18244884571987618 0.18173295914423615 0.17925760980843658 0.17407706324037617 0.17080249605508696 0.16864739446879998 0.16689712408183943 0.1664679563085312 0.1678986201992003 0.16801152441168202 0.16753695065067936 0.1711586358367561 0.17015709756068048 0.16420424823963473 0.1624137330650813 0.16302720011953964 0.16666632933227177 0.1696506860517589 0.17379054771506725 0.17934667138760738 0.18984075516742255 0.2024484066611954 0.2100397828946168 0.2164726493558713 0.21604917083656083 0.2114529508900223 0.2114292143091664 0.22026365617345162 0.21720104775899834 0.21420554323899543 0.19842219696486288 0.18866216546818038 0.18435782753479282 0.17707217067829747 0.16981513597947462 0.16193948241844072 0.1545410813242619 0.1495015034524085 0.14302949495510683 0.1403671278418757 0.13811848862646725 0.1349058272011321 0.1348931983502164 0.13567855301155754 0.1346492558540916 0.13440054286084108 0.13453761520781066 0.13455896173845944 0.13150742704010257 0.13327496764672156 0.13418599930620556 0.13573781258941037 0.13660624100655633 0.13753650336463855 0.1409901944864315 0.14320957932936773 0.1463163514018536 0.1475277586747214 0.14702345751256152 0.14890645511005257 0.15212032104680318 0.15577468143150952 0.15743839010752983 0.15484672245104514 0.15781560099163855 0.159602047476463 0.16019993761204437 0.16194635777023278 0.15995128211971435 0.15768005019308026 0.1582099747340117 0.15914194602079698 0.16243798083539535 0.16843105446521547
0.19325335831804333 0.19451711526479823 0.19724365490602294 0.2004763657083101 0.1973812115378708 0.2002592406764322 0.20750283859950333 0.21212637070922807 0.21074868588162723 0.21672793226553286 0.22210214593046257 0.22351581694345654 0.22877611904881232 0.23570247938004435 0.238914419929476 0.24279039913396905 0.24631891979154563 0.24767850504867506 0.2535445201975308 0.2572403283772794 0.2612971736799409 0.26245619226015826 0.2653963043582873 0.2702499484112518 0.2697371807555291 0.26469236891951786 0.2625111060016937 0.2641882033211693 0.26359339491285133 0.263685723694938 0.2658159521747352 0.2677245207466408 0.2717467834037669 0.2756684041751573 0.2803991279348648 0.2856226604135564 0.29096959499936653 0.29192244335531675 0.2852485222392984 0.28428419091031637 0.2798721843041431 0.2720463713145776 0.26745197233947704 0.26622058853311886 0.2591558637370606 0.25478493875324604 0.2492330073319822 0.24190093117412986 0.23187372016592733 0.22445866396980765 0.2248546184368472 0.22469251956011 0.23340200388444324 0.24123796117503477 0.24415667099337224 0.23982675553065444 0.23176061286439983 0.21742688074674912 0.21109828607345082 0.20939752909855486 0.21257645716961646 0.2105505996529266 0.20941072730609026 0.20635796435712003 0.20452787853982066 0.20365231560894426 0.19745895975388136 0.19378653592395678 0.1895550634572052 0.18823879838138327 0.18739515975298837 0.18720316259575667 0.18609356340682182 0.1856946710050004 0.18462999149947396 0.18438101044636404 0.18541161269240897 0.18348734678258263 0.18284163669660997 0.17792664140351133 0.17416473999229243 0.17206133698070966 0.1683690118274675 0.1690559397209887 0.16901444152188455 0.169502537113367 0.17040215815972792 0.1684091417119966 0.16976202047164723 0.17104380571578146 0.16584349897698242 0.1655021536241433 0.16656896756511114 0.16951047346311574 0.17250458279233674 0.17475769592011936 0.18105112158791437 0.19003356339254412 0.20437915004216925 0.21153948515817825 0.2196944190327014 0.21084451986770855 0.20830212967686282 0.20688199032427756 0.20888953520396036 0.20762554819587842 0.20349117922473461 0.19341229093853582 0.18637327364964876 0.18228656188897646 0.17565337426091768 0.16522846600657892 0.15806639974641704 0.14984418490074725 0.14423900782827684 0.13721380559333932 0.13268607663883222 0.1303388222679569 0.130084933863171 0.12919626405766024 0.12879903945383187 0.1275413018677309 0.12822092846953445 0.13071299093514682 0.13198116102884777 0.13022256346876895 0.12936167806839524 0.1324712339385249 0.1337782375712954 0.1335805064322776 0.13515957144902313 0.13663418354869566 0.13906131680911554 0.14313252399906884 0.14369406016965322 0.14392542577472842 0.1481525245654315 0.15063665443352856 0.15431721001906465 0.15505805315588114 0.15165733916877736 0.15328379101651196 0.1568653427139187 0.15972554524480884 0.16177409859458852 0.15840874099675029 0.158034105915024 0.1603917202560764 0.16277593819124464 0.16520632368829558 0.1687178524847529
0.19799476020042314 0.20030392487416437 0.20257435623408035 0.20667829403453924 0.20912584776117582 0.21306758424332412 0.21799433981606922 0.22041529735153761 0.21851545599285274 0.2212537714291537 0.22593850349376515 0.22865829681222896 0.23156763653767293 0.23842914138600207 0.24355410779092718 0.2476430726362736 0.24998927849726635 0.252384626587728 0.2566236587038376 0.26076752703688666 0.26499974157699385 0.2706224313893379 0.27304815205959426 0.27549475089718717 0.2760033317681522 0.2739217930378522 0.27038290957351585 0.26973369280678505 0.2721520590880209 0.2711752219666918 0.26995425251681826 0.2719883749051858 0.28026881663855907 0.2877212844388698 0.286069211734523 0.2910680099460693 0.293808166401224 0.29244693709498754 0.2857324896839526 0.28292848748411553 0.28069796309525086 0.2751916273642953 0.2761242882020628 0.27666148720584416 0.26547541835271465 0.2601467753487178 0.2507661463233835 0.24099932336554225 0.2283886480847055 0.22291144094871773 0.22166835301587207 0.2210878027248778 0.2253615897896402 0.23154174072599407 0.23162910572361814 0.2288931242480867 0.22303131632439016 0.21860710957625215 0.21205662502203385 0.21330562088492502 0.21106584878900192 0.20589440934782585 0.2025220695985439 0.20403089804887384 0.20393874556158345 0.20171051135105048 0.1977222690867847 0.1948799043071368 0.19177703583876665 0.19002955940588806 0.1889684320173761 0.18869476822264247 0.18766323143305638 0.1873090451752167 0.18559627863987635 0.18590306739873944 0.18497098282348548 0.18535624190131128 0.18274531124936533 0.1778601745758642 0.17503041296670518 0.1727015032405588 0.17017162160577193 0.16949823007797696 0.16952258555514016 0.17039854893032824 0.1710576895242462 0.1710419629396025 0.17158370755054855 0.17014360475396803 0.17030400726948353 0.16827103861693715 0.16879290205459652 0.1717225124560173 0.17662411933488473 0.17844579152337847 0.18447649883058262 0.1949792396065517 0.21075402088141812 0.21696657010670034 0.21289277056518982 0.20806164281938755 0.2072761473320215 0.20258470713556084 0.20040087769438716 0.19468328637390303 0.1915313663484066 0.18913305176162035 0.18374889886953719 0.17883962872057194 0.16963808484045775 0.1612203116084602 0.15117254435657548 0.14186537790893405 0.13463026839634615 0.13014021391692082 0.12721083958959198 0.12446812179083443 0.12264214328686443 0.11983512988271365 0.12064284297625176 0.1214685794722703 0.1231313514892069 0.12769033072426753 0.12854655622967354 0.12640198162144356 0.12562560289251154 0.12711520798351808 0.13021707604062346 0.13240650313502478 0.13346159104328884 0.1336911564335031 0.13636076965728378 0.1381081270604387 0.13907800915438348 0.14103332484397713 0.14639596852206996 0.151033453351915 0.15190380957240116 0.1524577212667777 0.1514065194926152 0.1517790199435564 0.15399818125253892 0.1563838975916934 0.15977664417524934 0.15862521766530452 0.15785973377201218 0.15928842707771226 0.1620293671392204 0.16852373273978596 0.16969242615370675
0.20479340757581266 0.20618450723221138 0.20998079149356697 0.21405633497948856 0.21872595146229276 0.22300092544914488 0.2256786017846189 0.22705381642965763 0.2248141637588051 0.2238956406470659 0.22855493384837858 0.23103834269980764 0.23411973227467756 0.2420973359193858 0.24735348828307768 0.25709952619288384 0.25829354858444914 0.2564987914098758 0.25874388927424596 0.26315704622568487 0.266672069301007 0.2736464593516484 0.2755060672483084 0.27718588587556575 0.2790254936615535 0.27870286007120015 0.278133937670488 0.27700124087816086 0.2766130743802715 0.27663095338608756 0.2755433020367963 0.27207538726812286 0.2827363525419158 0.2945989374209363 0.29067627862488976 0.29383002717869094 0.2937255319062932 0.2917593993831882 0.2852972490337303 0.28547990356289277 0.28018099354755877 0.2769770774848901 0.2729876998687867 0.26780150614459436 0.2592118634012076 0.2511691104824397 0.2473319267769628 0.23646950201029787 0.2269321465547862 0.22207358408642547 0.22480162389546285 0.22291876122382814 0.2233054123246625 0.22494309019806008 0.22675767772362823 0.2252951680357493 0.2220813827970017 0.2185434370366808 0.21442634460219512 0.21146355105067902 0.20556429414055283 0.20193651620956357 0.20141017169058567 0.20297766232483733 0.2064637509427092 0.20281003159233726 0.19785170883556255 0.19726209349397975 0.19378843327633283 0.19210289320154952 0.1902829229167441 0.1915934051281276 0.19447953117470515 0.18917003272714122 0.1874842466678002 0.1872121548244559 0.18900915724899323 0.18768426833304203 0.181326876683476 0.17595072335573883 0.17578031404577046 0.17308558127162618 0.17110054085154047 0.17123346357251903 0.17086444773139278 0.16965203736805418 0.1716476304367422 0.1714118140844253 0.17016609569118532 0.169750238765795 0.17230381852469107 0.17186954178383357 0.17194571899186156 0.1732558603780169 0.17615399373380505 0.1803574571871306 0.18858221518533191 0.20363552811427935 0.22476058492055137 0.22432195269868435 0.21785472522953972 0.20795151057495667 0.2026015714053798 0.19629123165337492 0.19150080939990602 0.18888154697414677 0.18346024306440248 0.18042294263804426 0.17669874951576095 0.1718939218308279 0.1621748736089733 0.15176639434581446 0.14351529970563517 0.1370656778197334 0.1292097255249475 0.12475908991199783 0.12279221563029669 0.1196952410487043 0.11741098198067562 0.11544756103923666 0.11452615444598976 0.11428509823202099 0.11689503164823034 0.12384588336553105 0.12614710300695225 0.12201101129828264 0.12283705557100041 0.12368765545351919 0.12746931553974294 0.13083321399748965 0.13091362617412713 0.13201904490828414 0.13161748992446234 0.1331011901227293 0.13519144644410314 0.13823416871029975 0.14124429016277812 0.14426746232420326 0.14596419627655766 0.14671286899067118 0.14652164290820655 0.14689789334656567 0.14916794137003042 0.1513913670345185 0.15411400691272995 0.15616709675139676 0.15900842996004422 0.1594351293834192 0.15950664941737522 0.16450309274568733 0.1680271516119469
0.21321605179843395 0.21537702929397562 0.21879594157120202 0.21991565731502186 0.22634517683427705 0.23009273392242197 0.2306347078635361 0.2308208449404329 0.23066060004797187 0.22945922413010508 0.23054325932445174 0.23538128492889615 0.24104463796970865 0.24527273079304168 0.2508689089346389 0.25854375334210783 0.26114513436493336 0.2611301049812646 0.2612730955242521 0.2663114819991123 0.2744031994674526 0.27546742896868154 0.277832633271379 0.27808685312665093 0.27865017093730704 0.28069564383980333 0.2841016658390839 0.2842356146718325 0.27757037578272625 0.2785038801740476 0.2757096192246579 0.2780501413606419 0.2874250337988331 0.29649232558148797 0.29267790025580637 0.29293959224423666 0.29220768302608974 0.2877535439422555 0.28254425231076286 0.2794083123829145 0.27619280198318935 0.2722865658407074 0.2670038566561405 0.2571179991585043 0.25074994315970706 0.24429420196260457 0.24032063196076878 0.23124141049011981 0.22637639630565834 0.22228886508636367 0.22116046158553404 0.22312404654068888 0.22102612674849148 0.22182207984621843 0.22533800425371625 0.2245157302720867 0.22086386771318017 0.21718610563923782 0.21394510678803005 0.21030379980163677 0.20551856698361748 0.20391667978904318 0.20494667157400506 0.20420959021248372 0.20432229195020016 0.2010268760282012 0.19932023971021173 0.19637308216977137 0.19471948198424896 0.19475160671162534 0.19363294065036912 0.1950894930395324 0.19784863851109363 0.19382141820166843 0.189009703485771 0.18972064967346153 0.1913625152987213 0.19041086316314315 0.1839844083258887 0.1769678218905361 0.17710378834380347 0.17526082070916396 0.1719925198065592 0.17240598438225269 0.16969842736795185 0.17023337560711257 0.1728180915112108 0.17212927456686783 0.1715185607324355 0.17085659292722985 0.17363950192661362 0.17602390778097426 0.1800883273925231 0.1797837101448722 0.18037578418175204 0.18375811417877608 0.19183529244637404 0.20148468228360292 0.21665578830684917 0.2206432118277791 0.2191507551783871 0.20564224510426152 0.19859445026522718 0.19328739251983218 0.18763813450727443 0.18329367981730893 0.17883538740573446 0.17452739483803664 0.16753371591073396 0.16113022017825704 0.15098666469760794 0.14345449500980773 0.13699307661650126 0.13002175649145015 0.12358259193794882 0.12174704353416232 0.11833419920158103 0.11542385464026685 0.11268745292710532 0.11094379430987784 0.10991939276873007 0.11018818095857175 0.11230900310959037 0.11772494518657821 0.12210039691521128 0.12321046072999678 0.12256915970481014 0.12407505277378192 0.12608043003769764 0.12803333865968144 0.13059764717584807 0.13092360457185978 0.12960501626995383 0.1288329611155851 0.13113314580823915 0.13421440078680827 0.13698664700254165 0.1369213936265902 0.1399093970926356 0.14178723068383062 0.14334325430914605 0.14423773381064536 0.1444012216046284 0.1464305173394508 0.14921810174846362 0.15278932385687172 0.15619716256920452 0.1577689919192912 0.15826621942686553 0.16255994316042366 0.16684916437150882
0.22094023381895073 0.22419951604833066 0.22449562083076138 0.22420944141369709 0.2295830836787697 0.23415266408660274 0.2344239212476028 0.232613355592202 0.2322535450451615 0.23335593020368778 0.2360776134520004 0.24050745471773755 0.24613348213805208 0.2533509632802993 0.25698026882905584 0.2596042295452337 0.2611310109935895 0.26246197584169306 0.262985116630559 0.2682535637094492 0.27570889719736574 0.27654255844997744 0.2774946153750491 0.27767444698808874 0.2766846278827127 0.27737550396494515 0.28559131611864297 0.2813050542625479 0.2751025061609073 0.27395591439606654 0.2751706078539445 0.2805652324028433 0.2848968229446764 0.2838213449681354 0.2846471320796137 0.28643205118566883 0.2854632754691342 0.28411098420292963 0.27923614882487563 0.27727063477980923 0.2758411903716679 0.2706497944968076 0.2650082845073895 0.25582798409607976 0.2505966120061616 0.24502283835018188 0.23917269388154974 0.23126661969699264 0.22755680522392638 0.2251055729040347 0.22077971251849848 0.22136008828706374 0.2224622324556526 0.22155510393329653 0.2248526844076524 0.22425912958629723 0.2190602482929653 0.21349789229097002 0.20937108343592853 0.20820320545961507 0.207380984027169 0.2086082882747187 0.2084967320682092 0.20759330266379905 0.20493090227694227 0.2032342094662203 0.2022895231447325 0.19842139386616348 0.19834946566660278 0.19545093933542965 0.19605925213826228 0.19666299457912328 0.20048500180444248 0.1963701615788351 0.19199259234652336 0.191664114784966 0.19265450935564368 0.19050046391422207 0.1841988201464378 0.1810341481808306 0.18049697462926373 0.17472422308070765 0.17113456154229617 0.17020248216786849 0.16834625684573037 0.17048180233699287 0.1725853759771506 0.17300993743364068 0.17277286465085326 0.17356034044679125 0.1732412244364081 0.17717806834983757 0.18453934161870034 0.18097367648052073 0.18321300400390456 0.18612630728268847 0.19038276302984952 0.19875610988234985 0.20904122136246547 0.21383203257945724 0.21118275293870728 0.2003974036914929 0.1947487551863403 0.1882980095470834 0.18226923411351137 0.1773967739502696 0.17255067014841616 0.1659921770572848 0.15888563561720784 0.15037948670216467 0.14110216364634232 0.1349945885431782 0.12997904593574283 0.122502645583628 0.11783002028904244 0.11515499939618247 0.11260214557023197 0.1100454544008755 0.10760037728575592 0.10635808960249586 0.10592044697621546 0.10580207387593701 0.10713936724588402 0.1090904739663107 0.1136857781566248 0.11510768079921328 0.11690897445536004 0.12123987332508782 0.12350925156603808 0.12667457294020618 0.1288511205058762 0.1285423815490446 0.12762640375391593 0.12725439572406688 0.1287935121647651 0.12899531786559226 0.13031255495466323 0.132837342098462 0.13534316436904012 0.13842402630797768 0.14223300404407174 0.14336392057243408 0.14254416548170562 0.14321033271352523 0.1449903073276134 0.14631764530132263 0.14899491026245062 0.1519071118892833 0.15555654928565524 0.1615296349302059 0.16551689000779318
0.22624511985356524 0.2315228224323205 0.22913596145480028 0.2293180265311886 0.2324967386605071 0.23567657084291752 0.2384024653734986 0.23746120656884 0.23640566940620303 0.238885399791349 0.24112148868080202 0.24317453388191818 0.24741633719216755 0.2592676740926325 0.2586016579919773 0.25632182222752264 0.2560007164042018 0.2589655947949246 0.26359311698577415 0.2682240072226538 0.2756883305028584 0.2757900221965256 0.2767694698857295 0.27502336202145883 0.27630692088409636 0.2742835801036879 0.2796725730490222 0.2749986102488109 0.27315723449335716 0.2709336247232024 0.27329244432018046 0.27871046450333126 0.27953783535925164 0.2793885206845347 0.27596066001945696 0.28150829654396803 0.2834480583310765 0.2815927166345701 0.27842363157058636 0.27709741917698744 0.27442382509965313 0.26963538243335067 0.264482212869951 0.2576340120568328 0.25355618880603786 0.24590295121982805 0.23983740702845682 0.23321134383185 0.2310792535554638 0.2263428078211587 0.22117932621777578 0.21909708397484995 0.2182350419419155 0.2219931003494541 0.228778647202569 0.2265249452341734 0.2216050452587973 0.2125528183129413 0.20674139447061682 0.2070937714040742 0.2058814141924751 0.2081386287214555 0.20985411556531675 0.2082962754617378 0.20514820559974226 0.20155218145351012 0.199923616434063 0.19748555260232473 0.19412115403027677 0.19516678551537095 0.19531162771092916 0.1958264045366177 0.1971863185988656 0.19696729569520052 0.1943729488901184 0.19326693333885087 0.1937726856102908 0.19029811981082306 0.18446088619766246 0.1826404507403996 0.1817938204763757 0.17601570801168162 0.17090632718937024 0.16890338491826326 0.1698691965089445 0.1749482218428429 0.17429882432420435 0.1747692016655217 0.173242730835767 0.17124082995720755 0.1712667075179723 0.17525279872038954 0.17794995579500825 0.1783342198812428 0.18176334090677618 0.1837230288011852 0.1858320228433922 0.18678443098141437 0.19440743671921823 0.20268597032947344 0.19692351330254437 0.19262620769084848 0.18577175325158643 0.1801664544719328 0.17589407360664885 0.17018160443948305 0.1640855314315432 0.15775777707695093 0.14905388833079466 0.1406440700083534 0.13308033465069702 0.12754464312679256 0.12202618472911318 0.11685673464339438 0.11293482831307768 0.10978822659426318 0.10658969733123129 0.10418444607140394 0.10345509585977507 0.10258368042423056 0.10236238460356238 0.10250252104205965 0.10238096759695113 0.10380032548334289 0.10706612169489933 0.10995923419259845 0.11264556050966486 0.11556274549864276 0.12089495713587498 0.12517088431349654 0.12681573769800317 0.12545010772065376 0.12448850172440556 0.12363162507220274 0.12557477502710004 0.12557497135965873 0.12774089979259712 0.13184867111262819 0.13297843971267576 0.1351779217375906 0.13809790311830014 0.14241564073014853 0.14051287896758666 0.14097659823260575 0.14461648554749032 0.1444904778443711 0.1471043272116319 0.1491886632502968 0.15320972788469842 0.15972402846827544 0.16291743752699953
0.22870201217008979 0.2326476754242678 0.23831121695915639 0.23523274839238087 0.2374057553904174 0.24098689425179443 0.24629378971047589 0.246077867119176 0.24524649250622724 0.24531442493461011 0.24504109695716536 0.24605230683467333 0.24950987347248824 0.2542795735248494 0.2554490827094891 0.2535277505614335 0.25596966087724554 0.25903332529973483 0.2643437959595121 0.26870385661136065 0.27173043008342 0.2737899101979387 0.2748727665465261 0.27606002921482026 0.27236347038422853 0.27204633885714596 0.2728483001085292 0.269801651662007 0.27070205685157267 0.26970107746468114 0.27216068435104546 0.2751125315008474 0.2761061335391502 0.2748996510751012 0.27014250806136175 0.27508189044855264 0.2788929340282468 0.2775798561026342 0.27914931665404896 0.2761636771020814 0.27322365732199294 0.26855833783985783 0.2635593325880669 0.2607257147628104 0.2546760757607218 0.2469297647399147 0.2410771189206996 0.23549172842110835 0.22951916381514004 0.22562156026602823 0.22258052314198754 0.22221029080588417 0.22348229333666414 0.22876684556976046 0.23276734680827205 0.22682765558051754 0.2183419621068012 0.21129137963906178 0.20939313989730712 0.2069164338315346 0.20530042564408332 0.20515998483176665 0.20673544833469934 0.20626594575158028 0.2050115097327165 0.20214127431219345 0.1994484189166383 0.1973514023736285 0.19493501522775444 0.1953276307882094 0.19594918491215219 0.19464311917745217 0.19644368838552564 0.19649987406191796 0.19233029953676126 0.19333204706183574 0.196861465914083 0.19324143623447124 0.18940312116896135 0.185338188157378 0.1811676163771343 0.17850821945513148 0.1752148298258463 0.17299937571296944 0.17304133953984827 0.17633235797219562 0.17628629210639135 0.17620763348455884 0.1736314240473807 0.16966495278982005 0.1693519790985411 0.17207122473035497 0.17500242424886236 0.17614878925147018 0.17544891093797346 0.17698656947019525 0.17859675988086238 0.17987122064233596 0.18024786554195538 0.18514453957839 0.1864014191020769 0.1831650051525048 0.1763681205702024 0.17228758805289646 0.16684645308587018 0.1595211489965152 0.15627339933580886 0.14926104196607046 0.1435597640552113 0.1332798279578414 0.12503089120532185 0.12112038376501938 0.11684234658015129 0.11258715291936093 0.10919149376578727 0.1062260616999348 0.10385045375831822 0.10139180499369024 0.10067171547756777 0.09938250419079027 0.09917411895095815 0.09959283315161942 0.09924484363848367 0.100453457587263 0.10181800183025243 0.10538025722383244 0.10801659899777381 0.11042878328197592 0.11438505548848228 0.11711966521767933 0.11964932385910548 0.12091562012083552 0.11984050108901374 0.11906160516010676 0.12151950332275825 0.12306219323978067 0.12426710051194466 0.12678125918528868 0.13075609990430936 0.13332856939906956 0.13534439096933368 0.13869805148485298 0.1382333441003382 0.1379783224925656 0.14168815703306806 0.14344135452145385 0.14432640094385854 0.14584777093714188 0.15045907440079268 0.15747778283999328 0.16200619274627
0.23182662544524163 0.23568005822264354 0.24416668201213218 0.24131553309977125 0.24639307301844923 0.2486297767478825 0.25306766347946785 0.2540605553518106 0.2535915031200568 0.2529704851204108 0.2495842069964663 0.24861641306703505 0.24887552616414108 0.2537163258080173 0.2528857553996731 0.25255319577623364 0.2561988060310153 0.26236526684730394 0.26683925413361154 0.2718199343230051 0.27352263766434864 0.2761389233098346 0.27323008144490823 0.2745055259349795 0.27586498180292995 0.2691410596819638 0.26850823467942897 0.2686853175647976 0.2713809098066734 0.27290426537745405 0.274291904603298 0.2751773797416044 0.2731372017892927 0.2702560378128773 0.26862587282463446 0.27174537132029264 0.27433655266571927 0.27346096355893124 0.27546489614946806 0.2741450316635681 0.271806229649583 0.2681620507787369 0.26573982070044294 0.26090566043544866 0.25325835338468383 0.24663020286718074 0.2396789912083267 0.23491485962182257 0.23237483849120774 0.2300442891456742 0.22658873772010463 0.22878669233554252 0.22991355573623887 0.23059084792940127 0.2262230641280038 0.21806195601728276 0.21266821444087938 0.21042124751560717 0.2083308067110147 0.20688433164370693 0.20648970886839477 0.2065730088805578 0.2072846655883379 0.2066306744274963 0.20838651286501256 0.2063182213056329 0.20368995737090737 0.20026953048442636 0.19575696049395017 0.19318442522507145 0.19623645274722676 0.19783233383032564 0.19753372701653618 0.1968470604574876 0.19459424756907287 0.19505502645018274 0.19647703464728047 0.19542001496821604 0.1938421044096894 0.19244788726070894 0.18843032620831165 0.1863282447830281 0.1826892553152118 0.17962694361420067 0.17833899580410992 0.17897800660423066 0.17834991425448893 0.1777089872332052 0.17506826285199786 0.17233370290014796 0.1708587204020058 0.17174953528693862 0.1762350763616137 0.17509360429084697 0.1734215319418811 0.17346872791474452 0.17299829347556053 0.17141302499548536 0.17323057951048743 0.17619233058242245 0.17546555645530829 0.17042050987727708 0.16405849223452657 0.16276916815088502 0.15862847148859244 0.15187572781788103 0.14921696846229354 0.14298004763603858 0.1359890082137063 0.12726273437858085 0.12045051946730934 0.1163859595739173 0.11229595738375361 0.10871634530614091 0.10592545127570804 0.10278758465253379 0.10083036116416515 0.0982609644755944 0.0971986391303118 0.09667130511652128 0.09604942563424726 0.0969952416691583 0.09761555456529594 0.09685716553248107 0.09864434612396822 0.10145047745526992 0.10398435303211541 0.10660861524866382 0.10877395597116322 0.11174304502138808 0.11495362906239646 0.11580593477363009 0.11562628887921625 0.1165054474750402 0.11842050395866748 0.12081393228707461 0.12231853191894651 0.12486698185087525 0.12836913050674192 0.13355274853664287 0.1347884685649547 0.1357421640246238 0.13685964703015288 0.1384560578198724 0.14299781179359863 0.14209569143817538 0.14186147369992863 0.14377798698909502 0.14764435676140866 0.15302493784903196 0.15865643836293494
0.2350870504131114 0.23786420092137914 0.24044791453665587 0.24452931187162347 0.2472404903240822 0.252546739426671 0.25923437747958683 0.2633163114329838 0.26252689729538264 0.25803364674884105 0.2529585146589925 0.25160220911668724 0.2545849213495141 0.25611228991921126 0.25389942228891466 0.25539731586815523 0.2606576534854657 0.26685220918369845 0.27097525205063294 0.274582903020814 0.2776079838033266 0.28027292242887963 0.2822624906859928 0.2804449375637154 0.2780898320748778 0.2732156519207769 0.27292060121997525 0.2756277180946464 0.27498675502754455 0.27381949017571205 0.27357186346254597 0.2752243739928615 0.26810949885297997 0.2649937252047991 0.26336819845537773 0.264640813756462 0.26688318340509554 0.2672669325063452 0.26629382634200693 0.2661717653571753 0.2658980798517788 0.2682398386536592 0.2679317450010279 0.2584557137507244 0.2505659704437133 0.245559225542847 0.24161549941372454 0.23889166555304764 0.23805351304099184 0.2358878963422891 0.23306436657249624 0.2318696881306205 0.23172743151915104 0.22871278406157147 0.22481656584709978 0.2182245795084769 0.2133631610355873 0.20919157083167442 0.20709517955072346 0.20637484663698658 0.2075162785290504 0.20823592977754354 0.2093879624693574 0.20825522554831374 0.20802457766545918 0.2076416025332779 0.20625966691121703 0.20296143050158486 0.19610843725512722 0.19418006663683746 0.194253386311429 0.19913272082897296 0.19921348903085198 0.19840749679669645 0.1983289643935296 0.19754649001842545 0.19781137570360358 0.1973650752377906 0.19656761045194063 0.19709078741910563 0.19440652165616143 0.19104514923996382 0.1892929877505228 0.18787255445660625 0.1841723049993603 0.1826329977181137 0.18148122933493693 0.18035820559980165 0.1765129919533749 0.17470432808193068 0.17090037659321947 0.17146994684897446 0.17351420536670603 0.1743251043339846 0.1739318686981636 0.17406083871250994 0.1741934468222896 0.170329776246023 0.1724506340149744 0.17177660840651632 0.1664006220467277 0.16049375827256382 0.15652626574205908 0.15287511719074057 0.14960885987916592 0.14495786942787414 0.14094270770257078 0.13628809650124393 0.13041872975848243 0.12272458955411197 0.11793418543279517 0.11268492194535198 0.10853441229538105 0.10526650885259338 0.10266377030927765 0.1007162763891206 0.09961661802687834 0.0945550612118648 0.09204413723301061 0.09265423574747798 0.0927731257488891 0.09464871359224292 0.09509797515025328 0.095791258026568 0.09793902098730724 0.10044745672331151 0.10407213990085491 0.10577450113862408 0.10700106010188071 0.10811116196908811 0.11139867168699466 0.11213739507788555 0.11113264174670343 0.11122938608463377 0.11487271126051958 0.11789085225580805 0.12354648687550181 0.12659612624396926 0.12846505260705876 0.13184098824791007 0.1347264430759302 0.1376414918607572 0.13866504770734742 0.1386684079972606 0.14132377977284993 0.14023415203076667 0.14227726368228225 0.14513617800792522 0.1495635062344292 0.15292111008456888 0.155962480431325
0.23813821299084917 0.23785474858206698 0.24118649788049623 0.2441847363547428 0.24729621280198308 0.25417886677852325 0.26101157230566785 0.2631626773050314 0.26217528597068973 0.260158339138137 0.2581363182627955 0.25804921950595755 0.2607701123972985 0.25907001651247763 0.25802984672112406 0.263211889777619 0.2675429301862359 0.2735450485504014 0.27988292393047487 0.28072197277477945 0.28482575841410424 0.2931891636954876 0.2929993798817698 0.2854571423959464 0.2810622673062048 0.2767713379277735 0.27476793568651997 0.27572528685514847 0.2727103182653443 0.27043242449573945 0.26715194610912724 0.26487457615259913 0.2616332373995532 0.2637189205900006 0.25990198079109567 0.2602718786592681 0.26162789690215577 0.2612623430754491 0.2597527076197231 0.25909096788333125 0.2596056109489304 0.2643882884467297 0.2633188239629302 0.25667817383510977 0.25195192050116344 0.2488925301732781 0.248292448890191 0.2483913068455974 0.24659136063676884 0.24542542475940973 0.23815557445014796 0.23477935179825624 0.23243809926988135 0.22860708956877115 0.2238849971916262 0.2173502333806765 0.21036624332020737 0.20529682040219518 0.20435407050298446 0.20472974561952528 0.2089898474800043 0.21089636104122533 0.2122557101196109 0.2102780210983153 0.20957660585550072 0.20986219231617592 0.20858816696636018 0.20600113571125503 0.20112679489202392 0.19695974266257488 0.1983830237953541 0.20075372285574658 0.20199700126097828 0.19952958757190611 0.1984400666780444 0.19787137757906123 0.19990663112036916 0.19898038964745532 0.1983119641650871 0.19881916341420586 0.19708584238687762 0.19252447081046486 0.1933312872772606 0.19306864731621706 0.1906204408121572 0.18779146617655568 0.18659027875969442 0.18487483755566736 0.18205273882013523 0.1804110205336589 0.17696953205049545 0.17474494732825624 0.17571154935135683 0.17576316633567945 0.17528230085793453 0.174480755033514 0.17245253391672535 0.17057799484618066 0.1692679149254055 0.16808878547469597 0.16243131715765285 0.15595860181654772 0.1504522589286822 0.146053626869401 0.1419667871553815 0.13917185027643095 0.13513178041539958 0.13091405530179112 0.12575272867750276 0.11871846847101647 0.11480236660280611 0.10945538850850826 0.10519210347723977 0.10290813703364243 0.10064112580200166 0.09723651785627621 0.0962961006342146 0.09213010747984678 0.0892491296322653 0.08933493335298358 0.09011428296985566 0.0916967754189861 0.09369825302268758 0.09571083257484181 0.09611506105024747 0.10040984015097537 0.10368764385414116 0.10636303604169564 0.109355745061912 0.10701968013779686 0.10873734201886998 0.11038221873585341 0.10828046935571418 0.10892948954644457 0.11185259552834452 0.11671576810769006 0.12335469530107754 0.12576792343850987 0.12795300340793228 0.13156670812784163 0.13638207121496138 0.1402789878074885 0.13918832746824164 0.13932482054008732 0.1381528217229241 0.1399069022994917 0.14149568632479767 0.14371191158269947 0.14682454297735753 0.14938408037612183 0.15147381814408908
0.24067843874973452 0.24009981614511391 0.24290120791305972 0.24529463466788273 0.24578091324814566 0.25412034992952265 0.25898866559590705 0.2612932803468854 0.2603607308786236 0.26356284872587465 0.2616720922993617 0.26093914450422345 0.2607608960529583 0.2628054916325779 0.26420217582521854 0.2665158509018127 0.2724771756962195 0.2859272648353809 0.2927377917783359 0.28450869762519904 0.28512526712930986 0.2901462496986804 0.2937225440655146 0.2910941301190665 0.2844226026977516 0.280885649348348 0.2737285432168041 0.26979570566674194 0.2682381704489387 0.2656217742864021 0.2621044762990169 0.25865222485184797 0.25857957110587043 0.25963996862774086 0.26177429405829783 0.2629932927762238 0.2600183869833838 0.25888521578292456 0.2585084344954031 0.2579884482271698 0.2576423709038173 0.2609517929904 0.25840115561142457 0.25662892981939767 0.2550845058776541 0.252331540073337 0.2505491684873834 0.24936677163213636 0.2486491093433025 0.24849740766438097 0.2420380729899749 0.2386768781728162 0.23441841726810572 0.22832190529377336 0.22208042375997916 0.21662869473540294 0.208342182753009 0.20525499231041258 0.2048479363038701 0.20548381620495051 0.20842064386515743 0.21400299164114975 0.2149470321200877 0.21321119638341623 0.21351992795368302 0.21264654680352488 0.21086730021748842 0.2086602207400586 0.20502475771018622 0.20199297518587167 0.20141225863977638 0.20315358951278686 0.20421327869808362 0.20129120313595072 0.19975329517319718 0.20239160453916122 0.20315711569255557 0.20006425046517648 0.19982335277419555 0.20037329257477185 0.20007602169009872 0.1987069416741685 0.19774183680025223 0.1959451410154404 0.19257261124963265 0.19371196982531863 0.19513845740863592 0.1941576597070339 0.18998990276276714 0.18598643052891523 0.18180952295223166 0.17844605091020868 0.17659300421087762 0.17562249859904264 0.17549448375023677 0.17523093069128357 0.1714634247671224 0.169614874017814 0.16633689585662628 0.16509404951804926 0.1579148954836978 0.15036885736765798 0.1456370741966258 0.14175168824552326 0.13895946331091635 0.13286930834641525 0.12782786311258412 0.12615988283742896 0.12108391404028156 0.11464941270562884 0.11134681399169157 0.1055325921133341 0.10235972390496172 0.09887999785611465 0.09672200273067588 0.09405652607889949 0.09249028627843571 0.08977602032330156 0.08737528480997898 0.08774811566659765 0.08901554703871825 0.08993182182711587 0.09097074115880846 0.09161616353028022 0.09501207253626594 0.09945492474493443 0.10433082154965544 0.10792422444974628 0.10956932184631893 0.10807206732568515 0.1082792029720018 0.1097515847383551 0.1082800494952507 0.10922326500640271 0.11135141079378653 0.11593315715499097 0.12008818417685571 0.12384365543238797 0.1275681388357691 0.13300391181452306 0.13618718162784843 0.137960360898909 0.13718792622763318 0.13697153863075445 0.13797111226754036 0.1386256620093658 0.1402182961445388 0.14061427811949026 0.1439421066709377 0.15097857179549679 0.1514399783082951
0.24317480752738485 0.24384278577908058 0.24567241914538715 0.24794717502511782 0.24976024141550474 0.2512743793033643 0.25836042307957047 0.2630586190026993 0.264220343455571 0.2666427684963356 0.2649745082762976 0.2626535447057801 0.26303033926655883 0.26420895202709177 0.2659457725844943 0.2704892951999349 0.2747506489959025 0.2852698562166096 0.30217033708488195 0.28390993422808136 0.28097484610789847 0.28269668271893833 0.2872260253494989 0.28415971358848896 0.2814432722265348 0.2805473767819384 0.2717315337403002 0.26878868901563246 0.2659247986503503 0.26385741337135626 0.2664254302460303 0.2635604150911856 0.25798637622421366 0.25886899894232157 0.25985502876681194 0.2603325742166386 0.260350845974393 0.2584576006595319 0.25916402518791776 0.25915904829424125 0.25952125293088013 0.25957951939165946 0.2567399713978826 0.2560134062913447 0.25989624242482995 0.2544790904596158 0.2525429020045619 0.252814358204987 0.2487081575326697 0.24625935604020685 0.2440517655259976 0.24035981342918483 0.2356791569358564 0.22983494526904763 0.22445712358336867 0.21646611820586706 0.21057052459412792 0.20707328154990617 0.2071810426144438 0.20996699901795493 0.21320830626302192 0.21552080990271377 0.21779706000007018 0.21718037460709805 0.21672261737087042 0.21602335000269135 0.21466953305078315 0.21326559224186267 0.20973956642472863 0.20792321090492047 0.2050310183587536 0.2063299746929033 0.20573782200108895 0.20461003350025525 0.2026998908621334 0.20208712171075705 0.20203317671353963 0.20093357446627555 0.20159675990319692 0.20212867288735673 0.20292874667344973 0.2020598154337101 0.19833422502409728 0.1966089938830814 0.19544247190539704 0.19944624290745444 0.20601395978442164 0.20829084123757474 0.20127095234797612 0.19352178543900947 0.18464987022278773 0.17833052141139183 0.1751467323724889 0.1728085540206957 0.17180732195813087 0.172780540609441 0.17219536392110615 0.16837513694601636 0.16555097444612912 0.16334630767472644 0.15738941776558948 0.1477972978437966 0.14216271918089596 0.13965376047540198 0.13704421295335717 0.12929368973155664 0.12489909745000016 0.12239354866562702 0.11796355498705868 0.11129737145480424 0.10734057738095351 0.10312632414406983 0.09885452708743721 0.09504648103066779 0.09355204863512723 0.09327616065429871 0.0911200125262245 0.08687349504478217 0.08518912525944775 0.08771643283774333 0.08912740050832134 0.08917218092375168 0.08991734044616555 0.09099711826042614 0.09504815034954499 0.09894161368716634 0.10359637834703725 0.10576656181511995 0.1083191066192078 0.10730897901349608 0.10741830856837807 0.10899184086991802 0.11043745796751094 0.11082833276757093 0.11264822055212514 0.11598968135282299 0.12049438335927282 0.12599855146838002 0.12893573111586312 0.13217585615878957 0.1347300882747752 0.13611783862061727 0.13562850446376584 0.13324967515484099 0.13476048125306347 0.1392148015742418 0.1405873377049866 0.13911154756347174 0.1426500448818129 0.1487158783251072 0.15193722819560093
0.24665710160556154 0.24681649550968332 0.2484191473291049 0.25079545075289084 0.2524761809432628 0.2542630364453729 0.26140434485091774 0.26627505632204834 0.26889518371741367 0.27054826831630985 0.26899052537885243 0.2664900366712291 0.26886782513249013 0.26850737682712694 0.27011834875459123 0.27494821396413643 0.2761264952574335 0.27774485681150396 0.28188320137772566 0.27879872123516847 0.28102360041712793 0.27972131894252383 0.28040880308888144 0.2826114487175653 0.28053234029107205 0.2768906315864638 0.270631609484828 0.2676887515896944 0.2649298957928212 0.26079214169255227 0.2618549650081377 0.25824589041177615 0.257563614718916 0.2577631126983969 0.2564751377484617 0.25710025539764736 0.25844843108797827 0.25873859463304666 0.25902120735555506 0.2588253710054657 0.25872798290486304 0.2580642163874159 0.2574026356152894 0.25726698870010883 0.2566735026311098 0.2558542711133508 0.2551212186055822 0.2538923208249262 0.24880405534396502 0.2458741610352128 0.24522234400576207 0.24232304778419578 0.2375199429889906 0.23170445070557552 0.22611352139219634 0.21792944322063595 0.21392056789102687 0.21083735410827678 0.2108311604810627 0.2148071692225591 0.2168452536134729 0.2184639679501186 0.22111272306838065 0.22043718878138222 0.220697274757726 0.22047599146307698 0.21981975022370998 0.21820136413178806 0.21405057307175585 0.2125013249731379 0.2105854360779251 0.2089094637765401 0.206226026507778 0.20718581699086752 0.20499007777862538 0.20074487899036836 0.20387599869835799 0.20384959196844496 0.20308940346765006 0.20167326454634096 0.20234905458680819 0.203105688487682 0.2016500190227416 0.19615760255004192 0.19735623799399493 0.20654149330573304 0.2207616595609513 0.22609900961264673 0.22066716076546988 0.20424196196112082 0.1877258891157023 0.17891355735544703 0.17708598970934705 0.1735789961417636 0.16950839637705917 0.1701913303080079 0.1701989421112289 0.17048963605284229 0.1669422471333246 0.1627349103335696 0.15720091909352646 0.14669335985176754 0.13937785613880016 0.1347345544716841 0.13226968309654602 0.1274412779148056 0.12417715177006097 0.12002925341232176 0.1158375360611378 0.11093651962534164 0.1049792362034809 0.1006033805699978 0.09676066787366051 0.09375101825982535 0.09154159420190196 0.08900411644230889 0.08650332980967072 0.08455219671800167 0.08385035025751594 0.08581729059026173 0.08819264730444967 0.08911412372851542 0.09005589438239589 0.0903761424965888 0.09352936539260333 0.09796771784501881 0.09966722396748807 0.10138303720536382 0.10646492349393312 0.10765929865753002 0.10621574512487653 0.10654680724658468 0.1087890529630036 0.10942356722649355 0.11181034682060113 0.11526357006203546 0.12099651077074543 0.1263599981650287 0.12875040247564487 0.13093780990621215 0.13371569172708958 0.13508609608802624 0.13261310578738192 0.13243947522106395 0.13394933383178445 0.1366044254323449 0.1379508956714489 0.13935166893642847 0.14239134161590167 0.14598499272297155 0.15067326260469327
0.24746194720917727 0.25065638678902613 0.25171226496203736 0.2538574998162848 0.25729154221670775 0.26193746647707394 0.2666269769945527 0.27028806364546715 0.27404447913224406 0.27618100127786804 0.2771199978696544 0.2752993996590654 0.2768831493551073 0.27739815842769155 0.278343125452986 0.27904833512807353 0.2784196608906855 0.27677486433316284 0.2775197959926246 0.2788944025562651 0.28330916472500245 0.2818728262437402 0.28199837664767013 0.28564037490889477 0.2832947114122238 0.2767071673970268 0.2704729107882791 0.26526081064621637 0.2637367226784724 0.26196522787053184 0.26169090276854373 0.2570674574723479 0.25669110835603337 0.2557428819681673 0.25506782639029385 0.2562957737787067 0.2579005691324723 0.2583242762425095 0.2559474817249996 0.2554852754991029 0.25568632875451563 0.25719119948349606 0.2570539790508415 0.25947981886013444 0.261699450145506 0.25943702508279504 0.2558077821049792 0.25187538242685303 0.24760258649082537 0.24599259811581967 0.24657990282115355 0.24334419129609897 0.24054977637368843 0.23410872685113113 0.2289054382417373 0.22098576543603587 0.21611652603187068 0.21436230477422055 0.2144299093712945 0.2164796547868891 0.21900748936382597 0.21988093435728884 0.22418381939967283 0.225186525176652 0.22946448331191474 0.22607519770425363 0.22498322163942627 0.22065787605509724 0.21566854564988736 0.2159347286147376 0.21444894552011307 0.21154408482951034 0.20920522421444962 0.20715106630495483 0.20698861739818433 0.2058397832256352 0.20448335161095357 0.20365549480232872 0.20236821250505913 0.2004799615029708 0.20297270052361377 0.2064477419326059 0.20591664326725903 0.19901640515919847 0.1985278392088877 0.2064039328540138 0.21737029500200628 0.2209966816915436 0.21710777663064815 0.20723200684261325 0.18787242438310725 0.18153123002893737 0.1797769605120559 0.171434805848847 0.16847353095830142 0.16955671286276885 0.17112213046594793 0.17332416920227825 0.17181064581107783 0.16216483490356784 0.1551433210063616 0.1449559469644484 0.13664385168740592 0.12950639242464024 0.12689565345877185 0.12558748816561366 0.12236431008345404 0.11847110604514208 0.11456192257157413 0.10962855989759973 0.10253619008714109 0.09916464143148897 0.09638713136752768 0.09313112317211267 0.08905428536516324 0.08740043548089747 0.08657495922134957 0.08388294330405803 0.08329120116146148 0.08549239732031604 0.08781743408500352 0.0880437868916947 0.08986920659370262 0.09210621952531549 0.09363301710671605 0.09724870712984768 0.09996972776796786 0.10218423717267702 0.10617894416334214 0.10641825198752047 0.10575530191756667 0.10390065941293893 0.10346305608728637 0.10583142123763724 0.10935492500222266 0.11254874831089161 0.1187541095601766 0.12402434142429124 0.12834573447613085 0.13255780890113988 0.13274915821232522 0.1327664697070527 0.13149874066574288 0.1317421967180061 0.13364639197248124 0.13601308869428655 0.13692824500800138 0.13868677457324535 0.14206425665017844 0.14565641405290317 0.149570143787999
0.2515124550734983 0.2535673859648106 0.25408299880143553 0.2591823384532305 0.26248984588605695 0.26629372815391866 0.2743012611201286 0.2760775935707418 0.2772000165559061 0.28091174664480845 0.28478846015233084 0.28183852453784514 0.2805683529789394 0.2816600123276985 0.28292142071005716 0.28395032290216976 0.2834079780575489 0.283574261319003 0.2829061169325131 0.28202624913534297 0.28290636180791584 0.2869823059724657 0.28969904491747006 0.2897720745128332 0.2899290212594194 0.28027864307555184 0.2726820775313808 0.26777809952809106 0.2645049241064416 0.2624732152427129 0.2622013472120413 0.2592290253269726 0.2571192377873162 0.2549855759942607 0.2545615875183966 0.2551518793079959 0.25682247271506886 0.25723569812403285 0.2528460271441304 0.2536165974019934 0.2542845820879247 0.25429279302466945 0.2568439536952132 0.25841172950306873 0.2599815285315863 0.25771062912143855 0.254926454621441 0.2514108440481991 0.2501952413631012 0.24907830810277184 0.24808252448624257 0.24658683655093785 0.24268725588363635 0.2375002451067511 0.23265864271729733 0.22469178391897504 0.22050044121558535 0.21929687670385184 0.2203579185721937 0.22046964024177368 0.22161577439969884 0.2228661806762613 0.22658849777249876 0.2298922739292761 0.22847954976448662 0.22767855268521286 0.22681124936399927 0.2213291446093864 0.220376091345879 0.21866190729659193 0.2149268509737463 0.213328624690933 0.21044240835513311 0.20974507606984386 0.2088870550373491 0.20759967052897296 0.20585425716137534 0.2048992613255668 0.20250892017714428 0.2016095731943139 0.20138002857500173 0.20231630371790119 0.2006396902222556 0.19640238247439873 0.19690182975825873 0.207431294067276 0.21504820005233094 0.21255100626183768 0.2063575113906099 0.19804997724790124 0.1884126867713805 0.18014183091718503 0.17807698577273007 0.17442516817025197 0.16986548698851262 0.17038102587547393 0.17279523830656068 0.17401936600301976 0.1728813870313236 0.1619999933651179 0.15263457881798118 0.1427228106401734 0.1339741673693459 0.1288041550648671 0.12652749338893202 0.12394775593957999 0.1206943858341892 0.11569119540273783 0.11226515307385737 0.10928341782747662 0.10465484231637692 0.09917843206822201 0.09670673305049014 0.09274517512947127 0.08694877543193703 0.08458305852998607 0.08595622000668499 0.08295459287834599 0.08286240024934784 0.08498243898833993 0.08773131192141147 0.0899633711224294 0.09134703201864405 0.09273421354521105 0.09365709157314984 0.09646470772722812 0.10148180498599423 0.10445508262935221 0.105693402251879 0.10587455767168967 0.10384060003798885 0.1007385232232361 0.10099200035082487 0.10213167384182043 0.10438815132886137 0.10874591961792336 0.11342685716902046 0.12065502610400669 0.1242170752765423 0.12752832674007988 0.12977762041962665 0.13054679565266944 0.13084813726613428 0.13182941006580667 0.1327289830298439 0.1347018288465057 0.13637522453344408 0.13824623398454297 0.1418755763669214 0.14615348439236062 0.15073697170467057
0.25577061316502264 0.25884865863407397 0.25957002399276413 0.26439576530605613 0.26819651765808133 0.2737059450064142 0.27714450921753153 0.2770541976630447 0.2779721338316794 0.285945763678687 0.28915557360707417 0.2827116655744709 0.27964223339364186 0.280433335071731 0.2832736988443021 0.28497279297604855 0.2852897258239971 0.2863944156325647 0.28645023780740125 0.285895499223962 0.28488215825860924 0.28800650111401666 0.2927414113915843 0.29448488525857536 0.2936339243038518 0.2824900272074246 0.2747961450654764 0.268832904933883 0.26678016739346744 0.26344696270014356 0.2620920992449542 0.2601623192603616 0.2567927965320802 0.2547000166686859 0.25447215995865635 0.2550144155231968 0.25729001872688073 0.25690850166251966 0.25349224655129704 0.2520052973313371 0.2543672566587862 0.25717516219879594 0.2589990588448873 0.2607822876332395 0.2600059370942718 0.26035402769682514 0.2566791530950953 0.2541500081941661 0.25181268409466845 0.25200648192987424 0.25112393270215727 0.2483445480212163 0.24598800817695535 0.2426365669566599 0.23835006365050618 0.23371502214973483 0.226688835404574 0.22765208500646633 0.2282261447018322 0.22708428541872488 0.22891274280187587 0.22838702450579593 0.23072294661282525 0.23221109640346035 0.23218860040144146 0.23020202207767182 0.2288273848654598 0.2250716589454071 0.22326784366398383 0.22235916256335067 0.2181821291891834 0.21496770823571976 0.2127534644817126 0.21161474521373572 0.21081134234245263 0.20895514989851055 0.20796795560580408 0.20625987976589405 0.2044094906139714 0.2021802808977224 0.2000887281997363 0.1993571668624974 0.1977317149403559 0.1952269917108099 0.1950683839276208 0.19919951984874 0.20511137248692862 0.20126670939993999 0.19287361092261157 0.18806984159066176 0.18273230887868896 0.17629396069885894 0.17589420784982118 0.17690299553549382 0.17496904191386056 0.17358546542278266 0.17226238640510724 0.1701670827818401 0.1669005554242568 0.16261071781047834 0.15263306665489168 0.14094178858155332 0.13443350961508735 0.1270596703962377 0.12070540618325418 0.1185836618806097 0.11517529738476404 0.11063757132506342 0.10913553581964786 0.10681622985527901 0.10390465360689101 0.10111640514941186 0.09701347792862122 0.08998735600776145 0.08570484229267847 0.08195028438479937 0.07888321722751568 0.07898676879503297 0.07971842656071403 0.08220797711847748 0.08835100836471213 0.09358397682618678 0.09203785866376936 0.09443967482642696 0.09459429788148506 0.09589305432620138 0.10042929340605179 0.1028580132917424 0.10391574696566509 0.10345944343224987 0.10100711404499592 0.09871997439242422 0.09853748517385937 0.09982272125799749 0.10167576464379752 0.10736472036201336 0.1110664214956518 0.11469068043283592 0.11994226604756901 0.12406026774627821 0.12708189016669075 0.1291900025234551 0.13325922798610404 0.13279569923937024 0.1317991332821755 0.13373643360712037 0.13613395891221974 0.1377693219746054 0.14216868143530398 0.14857992483778756 0.1564509338081146
