0.0958716319344957 0.0964418563236158 0.09773968723111241 0.09874228585195975 0.09901526222395422 0.09967864246269002 0.10120169626682991 0.10253134351196821 0.10387727636673234 0.10535323986110239 0.10709819373212799 0.10835723099907497 0.10959397847416993 0.11060418516916105 0.11208673669743992 0.1124778922286811 0.11324719256249771 0.11415345832736244 0.11420965454549517 0.11483773815817538 0.11632132668167416 0.11792321271239578 0.11923261759486803 0.12118240644533895 0.12343539360095444 0.12484006599465618 0.12683225303213772 0.12901906930652335 0.1313700774997819 0.13357277268160467 0.13622799142714911 0.13887512832339105 0.14105532975242832 0.14384709801184936 0.144654382424009 0.14468292135602376 0.14479183000512633 0.14450476943229332 0.1439131756883004 0.14349186783949439 0.14331099950336734 0.1428259372432086 0.14316225444390598 0.1427289228703032 0.14164659829659978 0.1416400976423063 0.14189887024712064 0.14185028877452224 0.14161830640302364 0.1406202023447034 0.14027099336169543 0.1406328616833862 0.141640159819128 0.14319827839702168 0.1435306114732505 0.14330439637297332 0.14167256877910733 0.14190724452274858 0.14129819250167924 0.14014752255329416 0.1394350407733023 0.13868416989031587 0.1379286930188866 0.13809074005386246 0.13802380438026748 0.13753636301147687 0.13644580688650537 0.135514197813154 0.13473602736063545 0.13327602379048392 0.13211417012190108 0.13168637833924224 0.13215073742540015 0.13302472583022903 0.13248152979998906 0.1314444081743123 0.1309792164013573 0.13107701606396616 0.13161852364077223 0.1329170837730801 0.13451839255179926 0.1354009989110651 0.13653866344761995 0.13796409399648002 0.13988157562107784 0.14092269776982544 0.14184237094823038 0.14280068129032217 0.14175801678221547 0.14060633716702048 0.13975064314289695 0.13913773409548916 0.13887025728873492 0.13804308561149245 0.13650245214326964 0.13597324506681907 0.13526856750931934 0.13530999945168867 0.13637167793509278 0.13812658681117532 0.13837733993539264 0.1389995910963707 0.13984973607337806 0.14016855402049352 0.13935684866209408 0.138536176480222 0.13830642272964402 0.13802237178470614 0.13880570529488487 0.13903777276451976 0.13880107332013897 0.1387304140850117 0.13906778661728944 0.13958278341832028 0.13941749282657 0.14052764168689355 0.14012245274774188 0.13828597336192078 0.13640623508910812 0.134821674220735 0.13269788836619567 0.13081860055253033 0.12979562705261125 0.1288350831616329 0.12776026183518382 0.12640860190849496 0.1245782286876631 0.12305479219259134 0.12194065823072602 0.12013725938219091 0.11881503822508606 0.11712261770536209 0.11570822283426543 0.11426575504529334 0.11340255941735032 0.11273492099869013 0.11245245185468701 0.11256918026557641 0.11351623914912037 0.11460051167156371 0.11572068860424403 0.11690283934449816 0.11770676316087332 0.11883081355965004 0.1202620359856296 0.12175641898283289 0.12352280293552842 0.12502258977738512 0.12721160004912505 0.12986205279819846
0.094737860483164 0.09495204436491997 0.09551404202098648 0.09635284427851601 0.09699170817315732 0.09775171379241875 0.09896761521528802 0.10075081285077633 0.10231481401535109 0.10351397039187632 0.10512002739231557 0.10684358842185537 0.10763076155852089 0.10868240788075871 0.10998889214417101 0.11096566465918549 0.11177194440614223 0.11262582311063603 0.11361140204821027 0.1144895334191234 0.11578682512114354 0.11781633552205992 0.11883945346764557 0.12001955038104269 0.12151449309064735 0.12297654064344053 0.12503989308021335 0.12728189923395222 0.12959400261098245 0.13192077467732344 0.13439620442340114 0.13703382906916547 0.1393409862674902 0.14141720349199363 0.14233629510662565 0.14260565125818753 0.14276276029966886 0.14269749719258973 0.14204446090716794 0.14219322373825466 0.1420227211954059 0.14206520160135472 0.14212451607447252 0.14240611743893386 0.14170039059952524 0.14206701022102025 0.14325004042496475 0.1427712720060221 0.14202208146570994 0.14162842800766912 0.14216218232025168 0.14238046317068054 0.1435225592161039 0.14505565510466922 0.14530027655120312 0.14391692902172695 0.14318970958667357 0.14349562063442614 0.14432066762287785 0.1422537223084702 0.14125816975012462 0.1402535045586077 0.13908234330667726 0.13862552629240493 0.13852720251751666 0.1378915285337089 0.13730960800825756 0.13655774246821964 0.13593127252480247 0.13474497037708305 0.13401015350144488 0.13390396160960627 0.13445815007219777 0.1346329811301522 0.13309884580270898 0.132143128866203 0.13201524215367488 0.13211961082951193 0.13223801118833084 0.13325351430090188 0.13439461299323294 0.1358498098735154 0.13813240893502168 0.13942630653633772 0.14098466519612327 0.142211356339097 0.14366305935258827 0.14535028981275758 0.14520503555680808 0.14316557927945722 0.1422381316861993 0.1417569288206921 0.1405079741746776 0.1395218870675086 0.13793837585693688 0.1376203031732707 0.1374947750668795 0.1375655717981403 0.13829405172550063 0.1391824118144479 0.14014373139338046 0.1419362095468697 0.14342616740416714 0.14269180365457948 0.1425606795299203 0.14161028523118904 0.14107047403653894 0.13977940056173946 0.13960863104257953 0.1397919597731823 0.14023523203547925 0.1408385177667533 0.1417879171126571 0.1408803744762243 0.1399547152109716 0.14025194746600675 0.13913815206289015 0.13794080852584917 0.13613596200334135 0.13493854069358438 0.13308040622509368 0.1316190976835507 0.13099199794290756 0.1298383736042937 0.12830285550591913 0.12931064142581178 0.12686614240321478 0.12440162457289648 0.12370805471957133 0.12146041585112236 0.1194317881368182 0.11809299497735079 0.11722906220834658 0.11534693164297459 0.11384557641907128 0.11350531316200857 0.11315493668971621 0.11312496473739439 0.1136971023453239 0.1146866941941381 0.11555488065436384 0.11652044630838039 0.11780394058698156 0.11901174011106722 0.12035832809974147 0.12188440776894709 0.12345009069078094 0.125043145263437 0.1267147222749647 0.12883362008379054
0.09401079922950989 0.09500957522649424 0.0944016455831034 0.09456478385618486 0.0955705812078048 0.09634684645130874 0.09752331673444972 0.0991280555690179 0.10064947427568854 0.10232764673308213 0.10361749050608607 0.10484941027301545 0.1065101946999296 0.10742391936945142 0.10831923362840172 0.10994848838334734 0.11081583904450042 0.11161753259240476 0.11254919997744402 0.11373171137745518 0.11483719009948395 0.11637111949467961 0.11869115144374673 0.11942427690663948 0.12026557220385584 0.12206837000077148 0.1243857269778396 0.1266753855838666 0.12895523147037308 0.13131306242433669 0.13332762757605782 0.13602079721740604 0.13747034420617568 0.13932254917771636 0.1402235123644939 0.14061909661939231 0.14082699654734543 0.14074311219062496 0.1408100602128553 0.14147595548588876 0.14134169802898164 0.14148720309092144 0.14144555597880623 0.14149731297374768 0.14148863011709378 0.14217918625102363 0.14294815858729382 0.14282372827677772 0.1422294178871571 0.14215068741283216 0.142945347959445 0.14429967777147473 0.1453021906820201 0.1462953348854676 0.1468006990402566 0.14613530959786686 0.1451358136724331 0.144447296197866 0.14504116320055274 0.1441594703576999 0.14351745427145818 0.1419303061404252 0.14044686740664378 0.14010651250345887 0.14007793229409501 0.1394195981506432 0.13887134138571247 0.13803411196762222 0.13779995631032224 0.13707642086667346 0.13617997592944847 0.1359829741609996 0.1359017652654744 0.13569850319008459 0.13447323496025498 0.13357013379882895 0.13339977807807807 0.13297953248189098 0.13322401892046715 0.1340739889240551 0.13486045681328757 0.1364875066341009 0.13865602320335324 0.1404874262161398 0.14208643706115384 0.1433090263009859 0.14489246413283205 0.14695285894465152 0.1484297255582018 0.14558971588459066 0.14437966620547182 0.14366814642159023 0.14246110218936844 0.14086078010335681 0.1401248621937881 0.14020818843285687 0.1401036912881165 0.14042367796272978 0.14096268511106272 0.1413761277748958 0.14254434281195147 0.14402347223262102 0.1467600278884264 0.145552461607468 0.14439675820945785 0.14351219761187747 0.14221898027143076 0.14102773553148173 0.14059652591753483 0.1411886866901675 0.1418149681620149 0.14217051758997923 0.14169295603988072 0.14075342748968322 0.13978273097143262 0.13924682210036063 0.1383138438133337 0.1374274467479797 0.13554158863439442 0.1342473364036561 0.1330816597732863 0.1317042500912099 0.1312184819832221 0.13060848696848315 0.12943138873839682 0.129107711175344 0.1277110357041175 0.12530309853251853 0.1246225332699197 0.12413434222041148 0.1207697160566458 0.11883510795494595 0.11707638284398011 0.11532716400664864 0.11411431671156676 0.11351311740798073 0.1138284864211639 0.11372885589843236 0.11380761077251246 0.11469132521893136 0.11550273066614357 0.11663212540923387 0.11808179631771992 0.11919427565257874 0.12021609174612949 0.122130735319532 0.12371515075661166 0.12532275363506576 0.12674512859062842 0.12865519495178543
0.09371358232539743 0.0941412179076463 0.09417730829233785 0.09425452054427613 0.09497444079127086 0.09543099761505233 0.09706207005609534 0.09854369285668824 0.09948398637618344 0.1008085033045206 0.10254464100843524 0.10359600356348585 0.10488524438055066 0.10588711565592233 0.10710632573343919 0.10872465764676316 0.11026190135696735 0.11119981918923134 0.11211940706493097 0.11327744691934039 0.11428961589395595 0.11562836344115061 0.11727564315986044 0.11839130274018622 0.12000900930630932 0.12187018472667173 0.12427384883004539 0.12656113676483127 0.12810722003073816 0.13016283957676894 0.1321737860670497 0.1341205389167264 0.1359268122455246 0.13749665215464918 0.1388149649863076 0.1394337428948821 0.1399665586803392 0.14024644228133312 0.14078369429743817 0.14115567469030607 0.14117621684842455 0.14149230287787123 0.14159402799125054 0.14150543772177054 0.14168431175827398 0.14242849672076174 0.14315916146207702 0.143200410989558 0.14252172518567108 0.14233344387164093 0.14333203102555522 0.1451444068443545 0.1458661051284636 0.14738902033122023 0.14911887689594647 0.149909515593602 0.14730389367203567 0.14588021335673873 0.14562141529030775 0.1456791413624969 0.14471429311949602 0.14305287310163994 0.14170417993806766 0.14102741154662152 0.14096985631569148 0.14092712379786576 0.14056553172701788 0.13989585885811437 0.14039367248287546 0.1396304776576974 0.13903997148135747 0.13902602083655977 0.137798410817797 0.13700272579825445 0.13598583888048868 0.13536938585695762 0.13479071584358407 0.13410978104778784 0.13411267150550413 0.13472109823056977 0.13548366534975528 0.1367107626265961 0.13897366710173828 0.14076864996046903 0.14217821288424298 0.14401687752999093 0.14686850997551107 0.14790511423588895 0.14897473535836492 0.1475402151052071 0.1461923178085613 0.14570355158812684 0.14438455049617882 0.1432784373939025 0.14250523562245776 0.14291139435792338 0.1423886778288323 0.14296358062662745 0.14404497267111285 0.14434024316542313 0.1446939537464025 0.14511392203752113 0.14591874736629817 0.14577417032724352 0.14456499360157388 0.1437005710811996 0.14228758041901077 0.14166674654129643 0.1412373052361993 0.14221219848403643 0.14375704250373145 0.142918392746519 0.1411427625881868 0.14029621203673692 0.1393567938798846 0.13848268358510643 0.13764265631265477 0.13661723181142732 0.134725568457481 0.13401008600930878 0.1326840990032382 0.13111278739182858 0.13062168039925637 0.13051925540801312 0.12960901772652017 0.12783836062087103 0.12695408155460397 0.12594557045062535 0.1252807506756589 0.12412102428810935 0.12117710037023098 0.11841943857455149 0.116587013453716 0.11489795244924358 0.11396739046272071 0.11383982170495241 0.11401125935629777 0.11391460690532595 0.11429264016582996 0.11523027303875333 0.11611674955825915 0.11701519918371346 0.11861147440674762 0.11982666018357577 0.12079335781500601 0.12238391284655604 0.12407401982455767 0.1257220916867753 0.12678377241073444 0.1281844931762705
0.09285165856919639 0.09376781483101497 0.09429683585212108 0.09505804347671212 0.09508553763686615 0.0950151509133412 0.09614277791103767 0.09700820282076983 0.09804803251989633 0.09968114284515446 0.10153624706204192 0.10266148426057438 0.10364879385492659 0.10458438526717863 0.1060708122681107 0.10789730551565627 0.10957536135844954 0.11114526570693822 0.11260323765169859 0.11389874694256369 0.11436970154143516 0.11585196028595628 0.11691161458792783 0.11799432359138756 0.11997553658420429 0.12237991137221572 0.12452763051887261 0.12629840388281036 0.1276590406209162 0.12946275856160033 0.13114121977000998 0.1331260104910653 0.1350412604490445 0.1366157672375421 0.1380590934205555 0.13950495577653357 0.14001571426629075 0.1409596152075954 0.14178265858425826 0.14230566441794826 0.14266950445693044 0.14279011763408944 0.1431965610605862 0.14287205503808983 0.14289691659454942 0.14366059282959892 0.14463363707197188 0.1440655938821865 0.1433033537932343 0.14295205048993573 0.1436826420944575 0.14496185428229527 0.14586912357578194 0.14737657123589407 0.14951279446336865 0.1497434930191293 0.1488838839735963 0.1476037803679635 0.14716701058384343 0.14586746928271263 0.14500310803107286 0.14410064886446924 0.1433272443581213 0.1427528057850192 0.14278080784446479 0.14328660496989828 0.14150892284287958 0.14067239043464017 0.14200504695620547 0.14292513394344306 0.14082343806440972 0.14060335611944577 0.14030979635091842 0.1398451992843871 0.13854844618289716 0.136695232197881 0.1359507997903048 0.13569331391601952 0.135335913677447 0.1356744831433322 0.13666253892060076 0.13749255417241765 0.13922597361621417 0.14179014025752934 0.14273748717167803 0.14410204278305966 0.14632098045695235 0.149442908502166 0.14969059141856864 0.149267550911147 0.14863533624687972 0.14798733796012015 0.1468584408648828 0.14597056016853618 0.14523343898718255 0.14526137147407156 0.14523357093013695 0.1456449650977744 0.14563819188307542 0.1456468047036682 0.14679810306652186 0.14729787812671116 0.14760535165985142 0.14673340230479087 0.14543285342022177 0.14407712676135911 0.1430903628756136 0.14251265757742362 0.14210980097841183 0.14281092678038382 0.14260988881479014 0.14199349621273696 0.1415958881881623 0.140122974280429 0.1389848981350969 0.13790217943013197 0.13690697412611547 0.13582016948736256 0.134661924272405 0.13305059735695857 0.13155840031915328 0.13054072584495338 0.13000119686020323 0.12917129361218227 0.1279845054634644 0.12679778659294147 0.12630021244832318 0.12624047803619795 0.1251890492142745 0.12303550961960624 0.12142457202192924 0.11854559831146544 0.11667630432965924 0.11481016083054184 0.11429478308553057 0.11409713226541277 0.1145708395536047 0.11448255053357624 0.11499843903019338 0.11605916186458991 0.1168722372381204 0.11755996947413884 0.11944457096477455 0.12058988490273437 0.12158226695326446 0.12263139713580656 0.12429096558022257 0.12595017675324888 0.12691783844774576 0.12815354328177483
0.09248153416618846 0.09327997287360452 0.09416382869392251 0.09520007009345603 0.09523509872152165 0.09523966730379228 0.09596927158384391 0.09632346147856335 0.09740084911348264 0.09936893027130721 0.10078369944536386 0.10189393231148927 0.10311492087543465 0.10437027303431537 0.10614954088826015 0.10794063729446378 0.10959392220595161 0.11098545896480198 0.11239067533855421 0.11465986338661874 0.11464597263217514 0.11522631568195175 0.11636005975542356 0.11807141069807732 0.12020726720420297 0.12275189751030845 0.12478372909431001 0.12653789536768953 0.12811126843411155 0.13028869456887382 0.13105222030917585 0.13276693154105898 0.13485488483789368 0.13697934558315228 0.13894719051382323 0.1403774356232996 0.14143563503422016 0.14240796279233717 0.1433656691704129 0.14449157180268307 0.14548111411580375 0.14528235204630338 0.14563679074152214 0.1452885076583404 0.1453170755068244 0.14588100696051726 0.14687778969914903 0.1464596411937718 0.14470546930430553 0.14407520950724237 0.14446594435237017 0.14511931173779255 0.1459960235280236 0.14715794094118384 0.14909020547408836 0.15108058319788517 0.15014450892180992 0.14929788606751096 0.14806502553203055 0.14646359110795365 0.14551595163840522 0.1451689438341111 0.14545157882720453 0.14523532688163182 0.1454377112841579 0.14465992593238633 0.14231262542666198 0.1416231773750375 0.14178209932685715 0.14241864286549288 0.14156311377719694 0.14094790712845306 0.14076442759726607 0.14223037016406906 0.13988282190878776 0.13829131055692345 0.13785456013943503 0.13776113960672956 0.13706470561026748 0.13686412438755935 0.1377415475595134 0.13881068720176007 0.139892047849898 0.14131359410236696 0.14293056181870803 0.14437217223197538 0.14653634321290696 0.14782513001344885 0.14875038434704682 0.14959832797482386 0.14955710058488947 0.1493508768257521 0.14880271673010034 0.14844144528268374 0.14827875089516399 0.14815929399495592 0.14875318178258265 0.14858637765430713 0.14826761155241105 0.14780854897119894 0.1478754646728848 0.14811760062154244 0.1490353057198302 0.14813347291707857 0.1469566341166774 0.14514505130396235 0.14378854542864866 0.1427732517364982 0.1421619074457268 0.1424365560891456 0.1431057719677754 0.1423839595430749 0.14109930442547805 0.13997083686887896 0.13894910707507308 0.13728118451125068 0.13635480206044878 0.135171047469656 0.1342818410182237 0.1328021958406074 0.13101505097069774 0.12982747485038815 0.12931108422084572 0.12870471711007472 0.12770210867663853 0.12650293572194674 0.12668581674237803 0.12663141182783866 0.12489085964581223 0.1228383462695404 0.12059831247427694 0.11801435308172013 0.11611926948047445 0.11457379623107238 0.11407151016113581 0.11437777001194861 0.11489139391840635 0.11494658319826805 0.11590101232619117 0.11723756844265297 0.11733341599113772 0.11815011824223408 0.1202483053701213 0.12137003667378127 0.1222247944969981 0.1231986700023954 0.12450779114583335 0.12574776285905967 0.12681398105631086 0.12919483020791217
0.09151079093040505 0.09226442673478281 0.09350616128216763 0.09417587291153348 0.0945409697218293 0.09459745378240242 0.09538042536030385 0.09588728961638364 0.0975115132735056 0.09917987825716842 0.1007433065395417 0.10191194588374812 0.10266984483654866 0.10377070476555489 0.1061325690339827 0.10793337141877077 0.10965727313131432 0.11099555333309302 0.1128700758723969 0.1153883860139747 0.11495358605834967 0.11544311192786437 0.11661350823933486 0.11847163027492744 0.12133759933406492 0.12363481264538183 0.12578121609935314 0.1266510921968129 0.12767332809757823 0.12977213712140118 0.1316285344669833 0.13348287116865132 0.13568683635292872 0.13821436821894567 0.14040792295285787 0.1420196706183266 0.14434569786369214 0.14452456184831142 0.14521709278105785 0.14677168251086833 0.1481889004083622 0.1478433943674897 0.14800291927071502 0.1478617092016922 0.1474958186317924 0.14829580369808043 0.14913210275082073 0.14837193275951416 0.14640720348992967 0.14575028175041385 0.14575989589692037 0.1459862861212797 0.146779268687111 0.1477257803948995 0.14920378826110667 0.15125065151281505 0.15173692634227132 0.15080247296513355 0.14988883785924284 0.14911883600124934 0.1474355325171261 0.14649465796332412 0.14653394877822526 0.14717670575396122 0.14640656658677437 0.14494934376999138 0.14350848168620003 0.142832870660394 0.14184657316538968 0.14133370175088814 0.14130581714521434 0.141490252545052 0.14126826292829314 0.14107957794431367 0.14078725260034372 0.13998952871894618 0.13958095041431656 0.13881749922639106 0.13811413862767857 0.13796375310620435 0.13888452921833583 0.13974968413472233 0.14096499015081382 0.14221217505385364 0.14345769889688373 0.14494296409726456 0.1470822800695492 0.1477059874917789 0.14859751063548907 0.1495817765286683 0.1509611586700124 0.15067730151892061 0.15043447963886042 0.15078550558071394 0.15121486898202335 0.15179460347369544 0.15194743450968606 0.15179857722343146 0.151293672373799 0.15090195799063527 0.15071828693205466 0.150090632193931 0.14990729828019916 0.14919505461569368 0.14843223416181384 0.14603119831811465 0.14447789963588248 0.1433823971192578 0.14289431100578617 0.14277233364350217 0.14247557880692244 0.14255323180935478 0.1403822975540902 0.13939332512159974 0.1382993138517008 0.136882340358299 0.1356601105529414 0.13493143676355668 0.13304471206293786 0.13144630660652304 0.13035720437343293 0.12920364425323758 0.12901913477334118 0.12866349923293963 0.12793505393904897 0.126905708173365 0.12706329533115884 0.127230085327793 0.12479179022839142 0.12221660736032054 0.11984716880611407 0.1175304065244078 0.11585331347361641 0.11508642418913255 0.11418016580443618 0.11429970818637467 0.11507866642626813 0.11555714968840056 0.11625312965892569 0.11695365459340935 0.11788097648528079 0.11877853558792595 0.12035894735906341 0.12212390765883596 0.12263127506657276 0.12326812874641944 0.12462217890306758 0.12555810510951507 0.1269050456883637 0.12897454384421594
0.09108194973339503 0.09249355908002901 0.09274229304026393 0.09278881281274326 0.09370604768783254 0.09414460113714461 0.09455050325643906 0.09561525272320746 0.09755901215103673 0.09958311983931077 0.10044552642168472 0.10225098188470225 0.10276796948008106 0.10354266856187572 0.10601655655143302 0.10777330006922284 0.10951184817462895 0.11163674627051787 0.11301012656542048 0.11392653606314816 0.11494624814198047 0.11652358623110345 0.11706742798782256 0.11906254963236765 0.12096937370869904 0.12387018184598272 0.125871329446608 0.126898058098355 0.12808479113507712 0.12980314921406033 0.1324557998576649 0.13479948444732132 0.13738453076806725 0.1397635789990342 0.14179470076464823 0.14348848803770553 0.14526937798191467 0.14657888700119226 0.14687565361248683 0.14791644147595814 0.15095027428978902 0.14904726109034147 0.14861196805895682 0.1490165972541244 0.14914653914555193 0.14908537265854865 0.14920241892415925 0.14922175871315063 0.14868414753556902 0.14805727691998632 0.14792450741816499 0.1474757457402256 0.14762227991996868 0.1487202127084814 0.1500658251754186 0.15124893369730988 0.15196686940328982 0.15265526805813395 0.15311387745119345 0.1515492098668696 0.14908620096898695 0.14795643870885922 0.1472274686175088 0.14739033551909836 0.14684804500692464 0.1453193001078517 0.1440941281878 0.14354078148443306 0.14328021247306907 0.14218100272850623 0.14199221958559774 0.14253423386653566 0.14230208175493334 0.14181926679924356 0.14263407043590476 0.14214100648762704 0.1407275011695885 0.1401029986503967 0.13981047021230608 0.1394893885767339 0.14057543789285556 0.14124165691527832 0.14233295358603432 0.14381612203911256 0.14415365873965272 0.14537750321998555 0.14825689282635315 0.14856970855828863 0.14868664611575455 0.15007237723514028 0.15127221204462366 0.15173103817757064 0.1521502981168392 0.15296329647933693 0.15428174114176477 0.15425951469876226 0.1548907180598374 0.15441276466302864 0.15306877778708225 0.15269105940831523 0.15385644919947167 0.15385850020315986 0.15230038284923667 0.15095173377282406 0.14944895337807254 0.14793227145360927 0.14732725376198058 0.14515391560825458 0.14377869451746245 0.14293493950049302 0.1421106673165036 0.14115022708249667 0.13995992945103464 0.13890224227155945 0.13704564927779023 0.13616341805513704 0.13463912476393966 0.13333811263047635 0.13232284735572303 0.13121354224116474 0.1301680629723718 0.12886315799847187 0.1277328655066658 0.12755693625474246 0.12661821069754156 0.12636479387155944 0.12591883597257192 0.12539042418669571 0.12291731666704399 0.12057197725743281 0.11926118764420013 0.11738147505339783 0.11590962460869621 0.11508313846152914 0.11441604022600192 0.11451921202587459 0.11512897554828447 0.11618510004223744 0.11652296385917754 0.11699317942731642 0.1180586952489145 0.1197155810580599 0.12076586999482121 0.121849731613187 0.12267779720808396 0.1236901621454386 0.1248960286290409 0.12625853097861006 0.12858135304989793 0.13005949095927588
0.09199684840423823 0.09167202308889272 0.0925038028793144 0.09269426089867477 0.09341048527015888 0.09328492726469513 0.09399353384754074 0.09485916274717741 0.09646247206890636 0.09879280947545628 0.10026928683753743 0.10170066550831658 0.1020209711584808 0.10336032917658397 0.10530473178699959 0.10752114720248838 0.10920853340786808 0.11186890470798048 0.1125244264978789 0.11326297540726454 0.11448726779964087 0.11609959982143911 0.11763184859923174 0.11940028011088082 0.12149750760537217 0.12398327272843694 0.1263310539763282 0.12811884436686258 0.1291457012549828 0.13109377178673462 0.13360533045357953 0.13645816361096758 0.1389226997001994 0.14143639530490074 0.1433337984960485 0.14439446121130692 0.145560169898362 0.1468736407250842 0.1484265595616367 0.1489323919014775 0.14981330595577544 0.14967125305324402 0.14916301555866926 0.14949477843247846 0.1495267420861323 0.14927079604289614 0.14976380686417765 0.1501462099267217 0.15036559785959552 0.15011873876441037 0.1494798334548335 0.1490124562410014 0.14894039237660361 0.15027696965759857 0.1514521605755017 0.1517255434906112 0.15268373769483362 0.15429476930217687 0.15333242016198656 0.15213469090840168 0.15146394524715454 0.15041804102813466 0.14960706260161216 0.14869318068514356 0.14847179281928596 0.14622423606303933 0.14484306621735046 0.14407027107383932 0.14385254799348104 0.14327766356419375 0.14291769360221268 0.14285296744346554 0.1432739071219754 0.14297266691255114 0.14366146538341365 0.14332665593847643 0.14277905473759617 0.14227995157035198 0.14174569136810958 0.1414184482688145 0.1421778515772039 0.14302802349062338 0.14411475995098633 0.14514172445176124 0.14537607452951523 0.1460175725806989 0.14694055226301878 0.14788342157517972 0.1490942633902514 0.1504647103172907 0.15176656707193178 0.15264640000263602 0.15348708679163212 0.15477683680118168 0.15573453666211212 0.15622626398197523 0.15660488225241148 0.15554104779201094 0.15499738441755725 0.15486093642408885 0.15504280166626155 0.15509532242752383 0.15387918781242452 0.15259280145433718 0.15114340484714278 0.14964745995237058 0.14848913948760076 0.14752965441474494 0.14535444778077955 0.1436301731429416 0.14232196626081028 0.14078343866545576 0.13939476427459482 0.13792847698203403 0.13624124278532232 0.13529723112521264 0.13420065290750874 0.1327045902331393 0.1320225034274197 0.13215588563311859 0.1298580077543494 0.12775870395543934 0.1266990293917704 0.12577546780209853 0.12534167566951926 0.12534234883854475 0.1238592270197908 0.12260357870597202 0.12094758483886248 0.11929393827151859 0.1180317550330579 0.1170002923555091 0.11572160056547333 0.11495476162277023 0.11424365123639894 0.11461162542934106 0.11530447657430823 0.11671780286660376 0.117456952000297 0.11739752849379832 0.11860525970522943 0.12173409561198754 0.12272986206501796 0.12234262807845135 0.12246809753864878 0.12355876607831252 0.12480923125901316 0.12614635979012975 0.12804296432594342 0.1306685529428869
0.09090611605971198 0.09052582421045292 0.09094851780416298 0.09149033887621634 0.09200648927189144 0.09269521726414037 0.09314404898385151 0.09407365296767183 0.09547371561610248 0.09692209773177311 0.09891245518399087 0.09986974866609961 0.10099287905013309 0.10271624932913256 0.10516481568968106 0.1066093419899973 0.10880580138839994 0.11084074790726618 0.11171174132579961 0.1126198702342818 0.11427660685574528 0.1161765778021069 0.11832868252261261 0.12036155508316333 0.12261512416117559 0.12478355455344332 0.1265927835959767 0.12852685266888167 0.13042391313710155 0.1328190129556192 0.13504786057834275 0.1377746603629458 0.14003679291704985 0.14309654912636802 0.14413677348963636 0.14484577218898048 0.14624874239903654 0.14684763684630098 0.14801994773062682 0.14912396829642438 0.14988368152525883 0.15046041115289932 0.15001705028103698 0.15006009891662778 0.15009410284888808 0.15003660124930684 0.15033717377148526 0.15062096241120917 0.15133360574765123 0.15200017348672623 0.15191276183762653 0.15116047184655643 0.1506604407786428 0.15117587597496032 0.15143803269424244 0.1518142205824666 0.15288019976462192 0.15441939700867663 0.1537729617623333 0.15356650606867536 0.15436406484031584 0.15351770501150436 0.1526167422801399 0.15023009366879952 0.1488580335114692 0.14744039500080544 0.14626954151897714 0.14492012111845023 0.14431887529372467 0.14413296006812462 0.14461749789802286 0.1439748622217094 0.14409102592836123 0.14407746070668284 0.14418109527350367 0.14514671193700754 0.1452402107303307 0.1448729253117501 0.14447921825418295 0.1438431596170677 0.1442678464742155 0.14513754840651702 0.14617136356578636 0.14610326144036415 0.14649426243423608 0.14706479253757232 0.1475077776413888 0.14835651753817522 0.14985608650690782 0.15135264392362988 0.1526855078663642 0.1535745757647819 0.15429463914362893 0.1566727609274887 0.15670451168520572 0.15792933693642916 0.15765657651555132 0.1572120418254685 0.1569854317172928 0.1564458245663913 0.15664265453016188 0.15760414678369622 0.15626290436200851 0.15487177469194743 0.15316391237340926 0.15097178899460342 0.14963901682168565 0.14808930746145443 0.14659421225277436 0.1450726461414407 0.14327079826726744 0.1418066224625547 0.13963113829328452 0.13794889164923183 0.1361031066792305 0.13492227475379956 0.13382154085894107 0.1321203394947675 0.13129249443401364 0.13118693993588365 0.1289406302237357 0.12701140821544113 0.1251953406469229 0.12468666703015183 0.12391955028868053 0.12378409986216361 0.1228072419349017 0.12138712453191507 0.11919315956713623 0.11788478456075675 0.11717995574462609 0.11611261903252852 0.11538853005276571 0.11535338613911647 0.11512604911270354 0.11470076080894719 0.11512228308762915 0.11603616623565996 0.11657910884837556 0.11647411505647408 0.11853480664475384 0.121048238848144 0.12188182259161422 0.12154815411415405 0.12185714627306748 0.1224827330266774 0.12383772090598556 0.12516619678025528 0.12723130455758128 0.12981497063221928
0.09024255466646994 0.08933668186568039 0.08920780682795072 0.08992423723830636 0.09083467989751437 0.09204745506282593 0.09279255211062494 0.0934935672180645 0.09417285616832219 0.09519972061349097 0.09644049862399486 0.09802192854562541 0.10049205986654895 0.10277027254786807 0.10439692175699554 0.1061345942482505 0.10850670885413992 0.11012670306860296 0.11131553821069526 0.11287029054469656 0.1144772441519508 0.11711369850804558 0.119689882261939 0.12173232763608466 0.12384191011890812 0.12550901666060013 0.12741270837846275 0.12944678247406682 0.13150701970243253 0.13428869165932603 0.1364998499528934 0.1387641927843792 0.14102918008012258 0.1427300938835436 0.14360021736846565 0.1449676068433767 0.1462040031809078 0.14669262353839738 0.14772504689912488 0.1491957183029877 0.15043308946879905 0.1508765878442609 0.15043208705701464 0.15033073866561852 0.15062622192775046 0.15092377623982908 0.15083257230247196 0.15096480648804006 0.151724672479913 0.15283661178319607 0.15364938117983085 0.15354320269008814 0.152631610013905 0.15311190201495442 0.15292309586428407 0.15329462461650306 0.153788470589682 0.15403209590538267 0.15386938222447755 0.15488803289391595 0.15646932545670605 0.15590515265005342 0.15425608755650788 0.15184879231365223 0.14989979538160694 0.14875563330852362 0.14787415319935848 0.1462859469373662 0.14535830197102267 0.14562655379404246 0.14625392264253878 0.14549202463852925 0.14530861152423113 0.1456111242713218 0.14585889230959287 0.14699408368519976 0.14722172081367033 0.14718356231804972 0.14715538017238738 0.1464068474234724 0.1462606212499606 0.14771570797337816 0.14807288481609748 0.14798819562020235 0.14754464346758114 0.14805179444164174 0.14859927492637762 0.14971412068125828 0.15176208569241662 0.1525920995115692 0.15323259942725012 0.15446756699488967 0.15567820988783504 0.15737446715841588 0.15794020483144744 0.15931855882514653 0.15871038585366615 0.15792481110049966 0.15757119907924902 0.15744094103666284 0.15822072982869703 0.1587672242752713 0.1585138566890542 0.15871899816989776 0.157000203198891 0.1537870631778791 0.15192172133624876 0.1501477418107267 0.14885475400292347 0.14623166304646146 0.1441050948877716 0.14278615551911833 0.14035853299515824 0.13891452101155863 0.13735744677226028 0.13559313816659332 0.1333583942449669 0.1318170873557516 0.13080747102268764 0.12960817765623228 0.1278878464458135 0.1257927343635862 0.12430889444034564 0.12373406771201557 0.12252278088528094 0.12193397430934773 0.12131550516227053 0.12020788749071502 0.11823102159759032 0.1172855157872945 0.1164905600689426 0.11527304966835392 0.11486708735473003 0.11541772586507175 0.11533447425563731 0.11478451251724771 0.11400911633436354 0.11403194935451758 0.1146968178691423 0.11523949332922034 0.11658646551037385 0.1182905917536525 0.1196354058878022 0.12096772970815245 0.12089487992522974 0.12177984783311707 0.12335334357483171 0.12415386295116478 0.12588211432283483 0.1284460051263412
0.0889326576634915 0.08838617522349242 0.08816926309074612 0.08889924749307973 0.09031200348736795 0.09103902877608516 0.09229095996691962 0.09379795622261056 0.09359176914290027 0.0941036960295946 0.09508975400151466 0.09728989273990117 0.10058756277051924 0.10288368342045577 0.10393342053112126 0.10580231154970138 0.10820465041387009 0.10969768224225163 0.11142451933605772 0.11366522105780474 0.11568351367208271 0.11878827102566719 0.12191712258871454 0.12302192803813465 0.12474702647784519 0.12657841134720083 0.12861926275345203 0.13062675224053433 0.1332224513772207 0.1360919673049397 0.13791220142091457 0.13954814641778904 0.14118489053962263 0.14245271990562505 0.14358125889800205 0.14527616559704665 0.14671181027122343 0.14726087362688203 0.14828677280647598 0.1497731949615463 0.15138967130781236 0.15164959146681625 0.15153695510258838 0.1514064423576565 0.1515577928274226 0.15209416762086014 0.15208996254081353 0.15185810551174211 0.15217656884526287 0.15289219366156068 0.1539715301178286 0.15459283331570756 0.15423643809726711 0.15476410349352956 0.15450076376441368 0.1555585833166183 0.15586085329439653 0.15541072352576327 0.15493400310762195 0.15567628772721748 0.15781853630546744 0.15805131669743333 0.1571380089187049 0.1537203903463057 0.15131363067053427 0.15016757058090155 0.14957102720746396 0.14795417762551222 0.14698545804369564 0.1466371533997006 0.14750030252010285 0.1471829324408147 0.14665240567006946 0.1470505462076625 0.14807695763637543 0.14965303439201727 0.15023334311816655 0.14987794287007922 0.1496770892400923 0.14939116759031276 0.1489940827614819 0.14937890932180523 0.14976150521072554 0.1494548414168052 0.14934045786624112 0.14914501509490447 0.14993398615348189 0.15129144269536401 0.15253418941945887 0.15345100366948372 0.1541277830830641 0.15508493714392305 0.15688904369132817 0.15845782511001832 0.15999678602137737 0.15957446915160534 0.1590479655142001 0.15909622643003393 0.15811434495614987 0.15762927552923867 0.1591786541530023 0.16067535424143836 0.16099306097740854 0.1610623253102586 0.16089560358737404 0.15735761554191424 0.15490992291072447 0.15227372174169373 0.15015737525172593 0.147668970998688 0.14539963409131876 0.1436096816132005 0.14175493639421388 0.13993762590338477 0.13826026622485416 0.13594232958085314 0.13354804503896572 0.13244499704861232 0.1314753888855758 0.12931199052440912 0.12723521088244796 0.12537629190771654 0.12411792392351194 0.12260840730525542 0.12172078208600295 0.12110251867837694 0.12044578953633214 0.1192168582292123 0.11775195718775686 0.11629613150802928 0.11508809998683053 0.11399998223573886 0.11374078906530148 0.11379838812393685 0.1137527449461979 0.11385523344805272 0.11308001424240645 0.11306823251969934 0.11355221740139797 0.11357916229400195 0.11466812787877075 0.11671167729262834 0.11744366321719095 0.11833431587399307 0.11923564246059319 0.12028253065840805 0.12145163589189291 0.12354172970813605 0.12486759358549991 0.1265692752453085
0.08706232684089774 0.08710013511955443 0.0868475168786449 0.08735465151537367 0.08852206819523012 0.08992021131227924 0.09218464878615443 0.09239432847010383 0.09245305442966893 0.09310065653960549 0.09418517176625583 0.09647660293429518 0.09982250703137768 0.10183696417929432 0.10338870210375231 0.1053283845946773 0.10768285759203462 0.11013677315774911 0.11295668879075275 0.1151257742317061 0.11725607816595823 0.11986813546669646 0.1229373068529174 0.12358028871192783 0.12541132154454918 0.12730532695066965 0.12957621233985908 0.13217452442124597 0.13507775026049415 0.13761979562822685 0.13931071834574937 0.14055919057706998 0.14197549594500183 0.14295697029653326 0.14455274070062085 0.14626554789945984 0.1475236591274752 0.14845776236634095 0.1496896891631056 0.15092272640523433 0.15223120276293406 0.15299281673488616 0.15357215952552783 0.15370862138268418 0.15392676348201986 0.15406000354277533 0.15407516721411907 0.15395470125304345 0.15342389531784123 0.1536752516825202 0.1543734072207812 0.15487189558629316 0.15509960510907148 0.15649259105362925 0.156096278418412 0.15645001788938934 0.15629297708031092 0.15626557932633586 0.15557847490098625 0.15647563774468 0.15829967748594076 0.1580008100655203 0.157432579620236 0.15480750657153125 0.1528589688090442 0.15196329108344572 0.15120072159330342 0.14959177067897778 0.14874589579165381 0.1482801852899228 0.14872347369726455 0.1489101099677494 0.14855904677275564 0.14945130118802297 0.15015508465494662 0.151700423116103 0.15247809707932203 0.15240503900296293 0.1523994355329266 0.1526645827894634 0.1520212966746452 0.15154663046002115 0.15180339482665536 0.15132726648018954 0.1509607844866102 0.15062459254114524 0.1508928902126464 0.15186919393051176 0.1526133560983421 0.15331967343170436 0.1546465818990497 0.15588194852147835 0.15770941190953366 0.15942897425832891 0.16133963596667592 0.16033403185013667 0.1600418859146952 0.16026757901949848 0.1587974631995714 0.15812487426879468 0.15935925099216272 0.16236189473775836 0.16363952755245523 0.16344884065351659 0.1619550822822145 0.161868217088967 0.15734273786280628 0.15443257986550288 0.15224786698613996 0.14963752103601094 0.14722095107473718 0.14559026209850173 0.1442366524295458 0.14110146591397885 0.13852172665203483 0.13636613627453853 0.13435381542022812 0.13248471633926576 0.1315268930294306 0.12973449805834147 0.12832614354121624 0.12571359933550286 0.1235816483145895 0.1222797262354843 0.12140968121728729 0.12096057184728533 0.12011118696611359 0.11880658435379189 0.11716470085790566 0.11562523689527311 0.11439795690601835 0.11367039431395094 0.11301279854874034 0.11275393580744651 0.11255211805202354 0.11224203939856908 0.1121835794663547 0.11265578653021971 0.1123754430080434 0.11240024086751699 0.11357200041706488 0.11447036637087293 0.11542835953251289 0.11627135438163365 0.11678720497078833 0.11798884670375787 0.12017751767728166 0.12295605107516654 0.12377107371834238 0.12567510725536107
0.08550208185262721 0.08559413323915567 0.08529023856853464 0.08564885505008676 0.08663494718380625 0.08762282434373976 0.08940168620659718 0.09022001716517546 0.09094438822970304 0.0922404242734388 0.09383077454338332 0.09600937917576438 0.09881728409763568 0.10077137619454718 0.10285412001212546 0.10497372481519832 0.10731627866907184 0.11075152190129123 0.11483487651181613 0.11689245235021938 0.11971396356389545 0.12108280329632323 0.1228239966628774 0.12440933046289811 0.12639411602774783 0.1290595650961669 0.13111459233772674 0.13356885232926813 0.13652404345749172 0.13901564867381555 0.14013881879025952 0.1419830966331365 0.14308458701467267 0.14430779090771897 0.14637952110541436 0.14789443318538834 0.14872327091992013 0.14996645366096364 0.15144748863390675 0.15266453346690095 0.15417852365239854 0.15552871827457324 0.15669176714027738 0.1570083802986966 0.15713760352032322 0.15710018531680187 0.15693073722999215 0.15623089531052015 0.15561312564366897 0.15534178922857692 0.15560021655258088 0.15588310859881638 0.15596714855921687 0.15731800518390454 0.15783685750933993 0.15737639434521034 0.15680987104301702 0.156134255341084 0.15574236687642945 0.1563019455771398 0.1577458864752925 0.15791523146831346 0.15775770607757486 0.15614268704036532 0.15470025984035232 0.15352683106288903 0.15279411732347145 0.15178270781552572 0.15070300566382736 0.15030646868452613 0.15041537881795677 0.1506688962316962 0.15056508969169172 0.1511586323866814 0.15229500940140678 0.15376708729519478 0.15487881123769798 0.154935780861501 0.155389443522609 0.15531695981991095 0.15515497695936506 0.1544771115790108 0.15449610095556912 0.15350154892794204 0.15288303453757895 0.1527093171161559 0.15247095665055715 0.15281724977086542 0.15335907555406408 0.15383876802232044 0.15507541742297562 0.15676266300563585 0.158161404358548 0.15951123441231468 0.16075730177456493 0.16097527003099438 0.16053601322033448 0.16053130724533218 0.15939088829869089 0.1588356627404795 0.1597655694010825 0.161698199912971 0.16434579838628585 0.16463226605319434 0.16447253901380102 0.16233327143212786 0.1598131545669024 0.15757820688348828 0.1546136084172919 0.15217247177611368 0.14987152600091821 0.1475209446864102 0.14509584727722552 0.14335856277636166 0.14048656565266132 0.13799510126028758 0.1355114767820915 0.13376741263878542 0.13189009463994333 0.13067612159704464 0.1282342814643559 0.12568723413538943 0.12386398356902689 0.12233230655142284 0.1214902995873301 0.1206777552998461 0.1195149818612811 0.11880684520082731 0.11745799581803312 0.1156320475836868 0.11423420214823908 0.11330195084409607 0.11267923123246024 0.11191880881659871 0.11144353647053076 0.11114639929130561 0.11159345381659022 0.1119436582259634 0.11153793927776989 0.11166809265259235 0.11217594855390181 0.11281628677263206 0.11324835422303557 0.11412345261823947 0.11483897416048369 0.11637220596860676 0.11811129829816552 0.12012856929095375 0.12221048467437101 0.12406622260716178
0.08386710359897802 0.08404339302687956 0.08362639955935337 0.08401158589890922 0.08488125965337308 0.08603754559425708 0.08735590551890335 0.08865146933327898 0.09006831710483598 0.09174708207003486 0.09371471621910168 0.09589508202299825 0.09842088303180148 0.10015466935782114 0.10237281231474632 0.10507522716224472 0.10723931871496804 0.11063966484159965 0.11431947765011266 0.11831711390621497 0.12083356877069158 0.12324827245221216 0.12371286973780028 0.12547888397093937 0.12785560657195155 0.13031628099940587 0.13255813192965524 0.1351851420220043 0.1381568123962705 0.14018728722243176 0.14092526029967375 0.14250696461492093 0.14385393075391345 0.1458175475554807 0.14770542081600935 0.14952264958016145 0.15103096364935145 0.15269444506457155 0.15436175032973887 0.15560908250998612 0.15701600475363667 0.15857600584804987 0.15963397117742573 0.1609056434645918 0.16143765647938124 0.16077045861532452 0.1599902562926152 0.1587050738921111 0.15789950386563084 0.15754742428302526 0.1573152024088857 0.157127283559514 0.15673021135356388 0.15745999167150787 0.1583443898417498 0.1576252325950153 0.1576698725190905 0.15649322210967204 0.15576736902105823 0.15633593675649016 0.15708916095244008 0.15796659269362412 0.15785172286795388 0.15684621103224303 0.1556440293370499 0.15478572316747746 0.1541813505727337 0.15504143389828015 0.1532547631642078 0.15276331417495384 0.15266203247728385 0.152236438130091 0.1526608535272721 0.15302811174212316 0.15394187352031194 0.15622296215079495 0.15631913136116682 0.15664041390996059 0.15715062215603642 0.1578265780446902 0.15808458614628906 0.15815415467242636 0.15826154360222452 0.15692245076871278 0.15590979715588826 0.15546205439601132 0.1548073407862007 0.15460530329463268 0.15480494380948773 0.15511519950404176 0.15625191766229088 0.15775618033563968 0.15885181922795436 0.16065347941139546 0.16123170791467234 0.16123343245933727 0.1616658595556912 0.16177764592715166 0.16077549210659367 0.15929850106158883 0.15967169255815333 0.16177835155547568 0.16366422058754862 0.16479807697422014 0.1642384299029711 0.16349931821009198 0.16228035852997955 0.16041359129300908 0.1582117868466209 0.15500745749581216 0.15170077715735755 0.14929258189198605 0.14698941097391593 0.1451441235489241 0.1430869768658641 0.13969064487060398 0.13697629615066761 0.13493542836071698 0.1322795658873018 0.13061703993650453 0.12865300525990767 0.12604478050015444 0.12439143819932061 0.122696172943597 0.12130228836530982 0.12011435035305167 0.11925867261226965 0.11772279248689133 0.1162702849981849 0.11509646259275111 0.11395698921200838 0.11284357678771326 0.11207272925915318 0.11174497081555006 0.11116389773462663 0.11056960412832412 0.11080305545025015 0.11088493807247807 0.11079428980328158 0.11083302001035375 0.11153915804068984 0.11170356772686776 0.11188799600418806 0.11273924214614828 0.1139382019250648 0.11551972953042464 0.1168392614333394 0.11836693375834749 0.12103198398827857 0.1227138824209349
0.0820322056443324 0.08224646500667293 0.08215657746247176 0.08257351057568128 0.08361371651232467 0.08485114940656167 0.08573017150056789 0.08680538979368997 0.08823860282864997 0.09002454200969202 0.09201580912987409 0.09455071874516457 0.09719796783702743 0.09944122127555208 0.10180339691904827 0.10479398476807934 0.10695762254708249 0.11030041255074878 0.1142536151566251 0.11900240547234976 0.12188132502003764 0.12377997477753098 0.12505520259233588 0.1270680444135285 0.1294658306267476 0.13195089544942817 0.13434527738324625 0.13718655831711785 0.13944913936744466 0.14069390991565203 0.14186281053176572 0.1432783953050675 0.14510056815523703 0.1471411993799659 0.14960869280822786 0.15202840432341821 0.15413930203346207 0.15648441600471874 0.15870995466029003 0.1598894144347448 0.1610486316569601 0.16217181696527252 0.1632815255558113 0.16476330111291412 0.1660035321994882 0.16451848557829057 0.1629234909674379 0.1616425229187786 0.1606556160637063 0.1599779430617281 0.15964586436250822 0.15929457812661588 0.15846536690436872 0.15840177261351837 0.15916603587214803 0.15857669630301874 0.15847446044380076 0.15751213083901913 0.1566845331998703 0.15684414246556966 0.15728037619974242 0.157822541429581 0.15729323305119053 0.1569850799002821 0.15710015739913036 0.15734578558491946 0.15608054941668395 0.1560879051166156 0.15634292775221756 0.15577223119699807 0.15523000476974827 0.1542467593746331 0.1543759289181217 0.1546476401688618 0.15532592553288402 0.15687519799800154 0.15739770099731853 0.1579608138555094 0.1589900516862061 0.16044596680299988 0.16170984492144197 0.16235721919187798 0.16228535612990747 0.16162008160347693 0.15977301233310356 0.15832575321042333 0.15736059716369336 0.1564881623869753 0.15633141497711417 0.1570383968348729 0.15804402219686267 0.15837625656492552 0.1592566551301486 0.16052888198973775 0.1612908073424233 0.1610936881751486 0.1618419737307085 0.16439138410739465 0.16176055651990434 0.15997276330153354 0.16031713772731154 0.16115033612899476 0.16297811195369336 0.16356870197314394 0.16416771290354532 0.16437712349685188 0.16311719894375767 0.16219081962976756 0.1607146811907495 0.15819549691237483 0.15468148690232839 0.15149362479358544 0.14906822178835505 0.14735858219896752 0.14558212150704417 0.14126416969846783 0.13768743709378362 0.13529581805621466 0.13290162432880065 0.13117292306934955 0.1291678983137147 0.12687905587092457 0.1245758921797454 0.12275679328821444 0.12124227251935499 0.12003489781162247 0.11862393611593913 0.11722752617175762 0.11581317497158992 0.1144571051005697 0.11351768598601428 0.11266110499795788 0.11235694960947695 0.11153334699355268 0.11076558384862524 0.11027794637815182 0.11028625573263023 0.1104021111374076 0.11038728474591979 0.110371137404177 0.1111836711240121 0.1110871612635225 0.11182860110514456 0.11254944191594753 0.11356786274390007 0.11456560732531512 0.11605168716444678 0.11769637831062166 0.1197543350520725 0.12234545799808728
0.08051822929812738 0.08064902375530508 0.08078480764093844 0.0809809000909893 0.08168685115493808 0.08283944869457244 0.08422446515518951 0.08531461193703246 0.08658006228609584 0.08836485047784681 0.09079051547359801 0.0937061578534541 0.09658889405624281 0.09875630604288109 0.10123418775804124 0.10384489248695405 0.10664873482438858 0.11002724541121015 0.11445789926915967 0.11876738859710961 0.12229582338649055 0.12412032437750282 0.12573975055220843 0.1279405337753333 0.13058040304479526 0.13344045033201735 0.13641679308082724 0.13910316599907732 0.14109440623836594 0.14198085028695126 0.14323588368167303 0.14476381933522944 0.14686818971054372 0.14926710074886312 0.1521017636564132 0.15516058326862303 0.1582983462571967 0.16078358345803836 0.1627831961164913 0.16523497240329718 0.16630379289998526 0.166699257416998 0.16737146690155755 0.1687305629810807 0.17029515142494456 0.16814371742087222 0.16645659505200366 0.1650477586908716 0.1635871613516669 0.162562636876918 0.16167516399918602 0.16033820239322083 0.15939482926509543 0.15950753390885608 0.16000627541977866 0.15986041534167014 0.16068412335620988 0.15925586817506945 0.15839785483126828 0.15779125289504703 0.15734072831823534 0.15756265541245396 0.15779778085381066 0.15771581692057915 0.15811942928047223 0.15780980985926366 0.15720132442716722 0.15721327736669022 0.15807524317556912 0.1574574131888407 0.15668118213591808 0.15586675840307604 0.15598005632947992 0.15634622682961427 0.1568297845338039 0.15757846307403886 0.15840500589411305 0.15977012321900316 0.16153259961952998 0.16365094570319597 0.1664368717386211 0.16602026338659315 0.16679176792914682 0.1658827361556935 0.16388078248074825 0.16210207581009622 0.15989723919131094 0.15849667668620915 0.15793739575839297 0.15869152209625317 0.15885771545475277 0.1590014322299493 0.1595027622929413 0.16083429318478054 0.16105283831053385 0.1607849275383009 0.1610399693175086 0.1622055345282564 0.16246941356315323 0.161117446751262 0.1608676120748095 0.16138719323924652 0.1621187642827976 0.16305623795966015 0.16343255145580698 0.1638533628831593 0.16421790892419671 0.1648719876472299 0.16419583552741024 0.16077634104830574 0.15840786160525053 0.15436087984702185 0.15127863947537892 0.14915870904584552 0.14684021892752538 0.14271698749321557 0.13915354873011407 0.13643234048849834 0.13411297240106893 0.1315878235093298 0.1297016774602868 0.12733011749606063 0.12472367666295536 0.12288683633290044 0.12127271592940002 0.11968373755243054 0.11836749869055688 0.11705989834893214 0.11554133010705256 0.11414302780331653 0.11328689895495213 0.11292052349085208 0.11219624976853847 0.11133127843521383 0.11087299775359946 0.11064877252082385 0.11029035746453644 0.11039898591854812 0.11082976923983522 0.1106939270774936 0.11082866655032905 0.1110147608495483 0.11179499897918123 0.1126155297034374 0.11373331927699727 0.1150441726784333 0.11629779199887559 0.11777979355907711 0.12001214830476827 0.12317179314111978
0.07946576073570966 0.07945021797950567 0.07982191724862017 0.0801109769406839 0.08081054676737784 0.08172079501511884 0.08268226747015697 0.08394004683042935 0.08554955873859867 0.0875224360575082 0.0898289082569543 0.09265896042918624 0.09555328674455811 0.09827579478007784 0.10116954821489288 0.10340530823464819 0.10649833711184807 0.1103820286186512 0.1148328680773312 0.11936053727607357 0.1226111488924405 0.12474285206594905 0.1271487668524723 0.13005215896881916 0.13279079223478202 0.13548601874485133 0.13797095490651165 0.1404057524601471 0.14297034319823448 0.14476233105636152 0.14560256576028668 0.14719448599992932 0.14947723226605816 0.15218855738259865 0.15525795183636865 0.1586588953413962 0.16187729547109456 0.16520935049923324 0.16756730271168235 0.17051757039947849 0.17250042570945653 0.17229666365593826 0.17241810389561277 0.17291335478045788 0.17315325497248676 0.17158423195364164 0.16983470047289517 0.16870370118740644 0.1672880813576397 0.16551064808441232 0.1638072695826874 0.16248994394672062 0.16104773733322122 0.16052817852214848 0.16099229952218921 0.16152136671126974 0.16144700730574252 0.16095048403975498 0.1603132845249229 0.1591631155676068 0.1585975474072051 0.15849696387622697 0.15917082815504535 0.15934748374930338 0.15927382680811283 0.15890044342281043 0.15856058554463737 0.1595412782854904 0.1594072722483727 0.1586952729472494 0.15787668525157156 0.15742647771565832 0.15724754107862265 0.15708657632614598 0.15816759728402735 0.15929378359155982 0.1603637980745298 0.16199416076235393 0.16398161342528395 0.16699202755757162 0.17002011034714246 0.169496347370921 0.16992256096484823 0.16876492307179777 0.1674152215281839 0.16612571099005602 0.16323526897913254 0.16091673608942045 0.1597567510783217 0.15965436430410657 0.15959083968373838 0.15879386617853702 0.15957419074755916 0.15965063694196666 0.1597658148168536 0.1601363617759884 0.16049160210000588 0.16041994845391305 0.16132677589127098 0.16163247110925916 0.16181888990285992 0.16228465204499806 0.16278379392676265 0.16404040517543025 0.16428660900645045 0.16464528632222022 0.16598035463716174 0.166472269347827 0.16605077342978286 0.16334352408212083 0.16151688201078349 0.15767867478631817 0.1536652227663835 0.15083466711087007 0.14797512631596238 0.144895017974756 0.1419708533854268 0.13918844228252605 0.13593971230482554 0.1330784891463204 0.13092007456596247 0.12839635936691018 0.1253691736170139 0.12317283544973394 0.12161591546953082 0.11990148892948264 0.11845506282664149 0.11709962663152391 0.11575702105202444 0.11454693507161827 0.11387474165681849 0.11333652990473837 0.11275794269477378 0.11245854409401386 0.11142755115158773 0.11130861460639506 0.11095927951824762 0.11106231197509178 0.1110142182762257 0.11092294370855504 0.11142797350189802 0.1115439394245714 0.11203579579767388 0.11326196530625253 0.11462469547056234 0.11559966584459515 0.11673089145392652 0.1180955119227088 0.12092825876564794 0.12282315108977386
0.0793534988714122 0.07907112938487794 0.07951496644818366 0.07964681419356273 0.08021127783732784 0.08077816939754648 0.08199151494318163 0.08343051387486998 0.085058412170285 0.08726013455366484 0.0900176187534751 0.09227981934445927 0.09504731158294259 0.09825088132694364 0.10084505491711394 0.10352697430946915 0.1072569571197025 0.11151325802422121 0.11619436811570369 0.12029269463672401 0.12359485924801185 0.1262191369699159 0.12894060751337783 0.13194460341025 0.13453536812225636 0.13719863593729256 0.1397458004320039 0.14207558828188283 0.14484233672150965 0.1464910971790362 0.14855648341101566 0.15057511701554205 0.15310033925179978 0.1563257462562625 0.1585512215733019 0.16226355503094117 0.16608408628965024 0.170467048226288 0.17331736364225822 0.17610632180765903 0.17925775176729034 0.1785649142320101 0.17828942776859488 0.17837794570955637 0.17733834237780213 0.17603892423474476 0.17415890062096412 0.17271345854611353 0.17129430165100948 0.16901471701431353 0.16756442876760047 0.16518002850715813 0.163701808873942 0.16278275066295547 0.16238011968979416 0.16287813444685312 0.1631786110488612 0.16259062728005913 0.1624944785089595 0.1616884956722601 0.16124547574567213 0.16114141664769432 0.1610399457032777 0.16122889304891486 0.16157427618040382 0.16123280484386826 0.16080059666595478 0.16105897238270075 0.16073990347814862 0.16043038549320668 0.15971954363187124 0.15954145889413657 0.15919431555906086 0.1588288026634241 0.15987151024721474 0.16092610976494126 0.16223071640331618 0.16375249614501586 0.1664254190479489 0.1694251535140468 0.17233063143916816 0.17267302070881024 0.1735674235904219 0.17244087948706693 0.17011975433364077 0.16810686926941518 0.16584865090382267 0.16315190386820708 0.161191740142777 0.1600538959078354 0.15935224076391988 0.1589904892983961 0.15914990897486742 0.15896158678425304 0.15916155224989775 0.15921622559926224 0.15972742724580088 0.16054961833520875 0.1606983284457816 0.16119571127544696 0.1619597273976236 0.1630988350005622 0.16429814777135676 0.16559762623518848 0.16602400996246808 0.16608185319483879 0.1671153901955958 0.16764753436471203 0.16742787603620507 0.1670043226970352 0.16299639083615536 0.1593819683060989 0.15627848575919512 0.1533948482260125 0.15054496229133146 0.14778430149669447 0.1453844154756672 0.14298982087218093 0.1386922609852071 0.1353817551452697 0.13222962526463422 0.12933874627377992 0.12649580705019683 0.12417969973050684 0.12245398666555352 0.1207809543806439 0.1191810709488848 0.11761881070943989 0.11648684003483749 0.11534401612251002 0.11441908720942343 0.11382417572418083 0.11305255475990292 0.11257979401977128 0.11244273543161785 0.11245991080403933 0.11248554709512076 0.11238803039656776 0.11214100866130194 0.1119383217646909 0.11224178916624725 0.11238789734496431 0.1129541754104852 0.11357443027433273 0.1149486327446573 0.11575514365881939 0.11673048567683986 0.11873912403420486 0.12149941393678221 0.12235346816549458
0.07885131066771363 0.07884190525776776 0.07877432203609261 0.07901511760423421 0.07959722310332462 0.08028337966081461 0.08151766468022799 0.08312614716739657 0.08516558363022055 0.08707568994316275 0.08950062888749653 0.09183741281982966 0.09485168613362971 0.09826469224460987 0.1013484363898155 0.10416133337943587 0.10789325161550557 0.11243148712792604 0.1175017961615551 0.12178982323478083 0.12480708189510317 0.12797619640568622 0.1310740685465616 0.1346355199674816 0.13760613578481903 0.14026844749250006 0.14239447923271778 0.14430753621912687 0.1466794261811205 0.14891664080758277 0.15098336514239508 0.15315405510985433 0.1561217811442195 0.15916822323612956 0.16224236205403905 0.1660750457354438 0.17112567091469125 0.17686007640526832 0.18037922006854426 0.18326470900232433 0.18534373565485926 0.18415056633670435 0.18338676612963326 0.183026025579304 0.18270276780020098 0.18131269144415346 0.1792193460801017 0.17681855571780206 0.1748543421053 0.17265736206892598 0.17066409194662518 0.16826111450686954 0.1669845483639186 0.1659630688496282 0.16492572495443086 0.1653503098596939 0.16596902068924813 0.16520041521717418 0.16529794747615026 0.16437317240548327 0.1634385163606846 0.1638989476163882 0.16372668112512162 0.16378110472721452 0.16422456973238003 0.1634004541770036 0.1625785964477404 0.16216649196649258 0.16248527081531403 0.1624420765956528 0.16193584411764042 0.1613472822610781 0.16111969638289017 0.16104586726412776 0.1615053640355694 0.16315541431600317 0.1643741326274204 0.16596174442293568 0.16852506930523212 0.17092620024191765 0.17421853162718076 0.17485494698369253 0.1748448756843813 0.17544663042962166 0.17249160734002025 0.1696843359392893 0.16706764184687137 0.164265564509158 0.1625817587617436 0.16106438163231027 0.1597609418607995 0.15913882103725369 0.1587012001560115 0.1584107851583547 0.15826515807230213 0.1588888029662179 0.15937592845841517 0.16053403853806156 0.16111156194226492 0.1611702717636501 0.1615001349257897 0.1626831909517019 0.1644309168324311 0.1656097327960023 0.16644679901369322 0.16621073685858084 0.1667367101898312 0.1673729451639677 0.1679767378654996 0.16818063965110175 0.16386073801834786 0.16171495816893172 0.1592499725116133 0.15608332285142543 0.1531314251678344 0.15142948617157592 0.1490589394816859 0.1456935064386452 0.14112888426901973 0.13708448800498754 0.13417412429076195 0.1310170588013071 0.1279680883925 0.12552895581863124 0.12350576992655773 0.12182343323169614 0.12017553691007671 0.11892355857660976 0.11733800851000525 0.11607829899061704 0.11506243772716118 0.11460076549421791 0.11386925026075498 0.11339874712467993 0.11331197120744244 0.11314472901992294 0.11328691465308215 0.11354701224805963 0.1139393939152813 0.11370150062322741 0.11351960397499669 0.11381178336750528 0.1142865213442865 0.11433249958087303 0.11493592341243082 0.11583295902802133 0.11706141490264481 0.1189327202358819 0.1205428759558843 0.12187257317186581
0.07852782139454488 0.07837643320837254 0.0785725173808647 0.07900468914718328 0.07937086355800843 0.08022496107297598 0.08121498834544522 0.08273577844801731 0.08465897510258413 0.08682106136714658 0.0893960865363552 0.09213544008532691 0.09507343569023699 0.0982941060975437 0.1019126372557833 0.10505071091404758 0.1086922509567742 0.11345149407725201 0.11801081867643565 0.12322093709967664 0.12684479830254533 0.1299281781195946 0.13308324696405055 0.13673915377040805 0.1403947675542076 0.14359067694060101 0.14563835332226738 0.14768292903774705 0.15059221097656944 0.15219511712859507 0.15454392090134011 0.1574555880941749 0.16119916455303615 0.1634830198367033 0.1662816490763443 0.1701846907483062 0.17626171604740998 0.18277242866590432 0.18575072441808274 0.18889239375647074 0.18920144006680506 0.1896814023452554 0.18995407709577242 0.18934924037308018 0.18869771469296304 0.18820030583393246 0.18400097945327662 0.18087155645218042 0.17889223811952099 0.17657376551567738 0.17397769962688678 0.17187384105808928 0.17030366699257898 0.16970052305897257 0.168419728338548 0.16814191257312544 0.16898651234112885 0.1686754974299716 0.16798065624027828 0.16662353951418354 0.1652879342933234 0.1649446263643805 0.165172426497137 0.1650487673857055 0.1655614496045625 0.16445830204161535 0.16372261638199073 0.16364620574089223 0.16441213735556803 0.1650485346514601 0.1639910956594863 0.16319504759180695 0.16322517092663497 0.16306385924589498 0.1635596062934712 0.1650747585565767 0.1661391494644704 0.16789305026561602 0.17031892156133038 0.17304392940376268 0.17629028188851084 0.17765783343857572 0.1753964079463258 0.17506488618729202 0.17395059001180452 0.17188466917205167 0.16846587677795938 0.16529409700056788 0.16340291386479774 0.16184745386612626 0.16062089755997724 0.15969540013176495 0.1588640065452457 0.15828664350217733 0.15829049812179088 0.15863521958250487 0.1596661661601214 0.16008271308880176 0.1612689963127795 0.1619791854493118 0.16209883463722682 0.16254457360853802 0.16378377215939527 0.16495423135778864 0.16542250737259392 0.16611296524791172 0.16767918408519014 0.16778945230678916 0.16674866076308636 0.16692195850315542 0.1643470458795614 0.16250738337720594 0.15956280578666113 0.1567725913459621 0.15465779822714895 0.15364659514211776 0.15205193748149867 0.14960339903597603 0.14363009350474867 0.13912296497526783 0.1356931617740107 0.1324458505081761 0.12940590525418127 0.12672683461884698 0.12435635325946694 0.12289923985277063 0.12131199084532303 0.12019649799608613 0.1189577778921961 0.11773332260536165 0.11637114256107542 0.11584840472232724 0.1153100450487331 0.11506453688351961 0.11507367636988707 0.11504308227662305 0.11509510350696114 0.11533705446826943 0.11549364254564223 0.11550377232367226 0.11560512511696143 0.11571197991312154 0.11514239841638445 0.1154648773362358 0.11599250543738479 0.11686556915653824 0.11811374649809787 0.119448690570679 0.12104884014255043 0.12243468446494549
0.0788571347324472 0.07844825557613548 0.07872530593333688 0.0793094952280987 0.07948331114462182 0.08060133797689073 0.08150150029591015 0.08288745913893744 0.08483864539940561 0.08749637489849356 0.09038236181039264 0.09268063919735786 0.09571315922651868 0.09912501675269898 0.1024771613956634 0.10580462010562953 0.10977876074401968 0.11475269919885532 0.1195233339607061 0.1239452643708352 0.12795583481861825 0.13156099771377885 0.13572155818736414 0.1405059547125412 0.14466515216011663 0.14723318764162197 0.14910814251431184 0.15098877045494372 0.15306141593479203 0.1548880061274766 0.15812616753893266 0.16190305331721652 0.16577635331755883 0.168297983294237 0.1708269506657994 0.1748438984052072 0.17967174566448452 0.18422906531413746 0.1879645106398728 0.19128699396209176 0.19346664348253578 0.19462562080239526 0.19498183771505456 0.19398776280377641 0.1928120443125087 0.19279515868151217 0.18902630108000432 0.18582842144448583 0.18390474318900726 0.1805749064224831 0.17789792420947334 0.17559874361256808 0.1738757202502557 0.17313523561049124 0.17247375379500596 0.17245790953926668 0.1718731649781488 0.1717929596302622 0.17118513580762437 0.16903085969170314 0.16706701712211505 0.16651417191187695 0.16716585661703645 0.16718611650112605 0.16682001947747038 0.16581567408958442 0.16551519679806026 0.16589915838100808 0.16661906584232924 0.16608590374668672 0.16552829817768253 0.1650212799488106 0.16537133891930553 0.16518959772477576 0.1653875800780935 0.16642652308567235 0.16745548339459296 0.16862612732689536 0.17016867269170186 0.1729042834407532 0.1758894294030924 0.17740842740320542 0.17519192260422795 0.17462356821424055 0.1751625512019318 0.1751456342491176 0.17091719088561838 0.16719252943365095 0.1650990998706149 0.16342636027320664 0.16161133647872922 0.1605603912152523 0.15977340949275112 0.15878929679624607 0.1584338540565075 0.15904827550835698 0.15901663953557527 0.15953694323423784 0.16049917596503105 0.1616381658768428 0.1623644633790585 0.16330004541982143 0.16441359272167008 0.16565495076361036 0.16574399185896685 0.165342657818965 0.1663465588240599 0.1674267353754422 0.16681655135200799 0.1670860606670571 0.1642022663395021 0.16088561540368654 0.15919627468851438 0.15787477818118925 0.15608590099601657 0.15485553329668125 0.15378667875593227 0.1508804416748974 0.14553686381119982 0.14088374443724042 0.13724542173881352 0.13394208205118638 0.13087743557177509 0.12804055697480948 0.12548561027192418 0.12443537490766356 0.1232456582485486 0.12203793436658975 0.12061292182104946 0.11928250509406187 0.11833997943480636 0.11764612345982696 0.11726990317241807 0.11694524829286801 0.1171607630300441 0.11783411241684563 0.1180946128993669 0.1178032339116107 0.11743673289051246 0.11738185450939632 0.11717554842805918 0.1169815385188091 0.11692155341631852 0.11675383763342136 0.11725378582968733 0.1180517451685039 0.11943822901299807 0.12191343686283941 0.12280754537138523 0.12439159913492276
0.0792143562554135 0.07916530548765718 0.07965633008798911 0.07992581969272486 0.08014848311201213 0.08094221569771072 0.08194974595528758 0.08342844495708795 0.08549256045012785 0.08855383169419447 0.09095880119679708 0.09357204107360272 0.0968981417736377 0.10040102023830957 0.10355347427039223 0.10685379278261391 0.11112742827518175 0.11620513901401461 0.12115831852527764 0.1258116117651084 0.13011961800057562 0.13382661202260165 0.13841849783663104 0.14333689414200904 0.1463528752424875 0.14980096511716115 0.1521066726086932 0.15470150754068765 0.15586235931746587 0.1569353288091271 0.1598402568256887 0.16311297928678736 0.16686418280572846 0.1706238405295067 0.1747000000003984 0.17924538418636848 0.1837163536968137 0.18751597259080824 0.1903132839517493 0.19370206936160853 0.19704247073856393 0.19991637275117388 0.2010464667907642 0.19825006031074424 0.19630469666970735 0.19623949600618648 0.19279580169715987 0.18968489124408786 0.18740514356871874 0.18509153034402603 0.18215433168917547 0.17952286610346185 0.17804498418985817 0.17719552791482165 0.1772734610648546 0.1760102927626266 0.1757959454980029 0.17458154385053873 0.17310968284908362 0.17141825162536406 0.1691875358882945 0.16840476442224075 0.1688464774354818 0.16964988547697804 0.16884600573585615 0.16732024728154918 0.16674155142298025 0.16772861222214985 0.16762277497281744 0.16760511409866635 0.16756146060042737 0.16720545028777864 0.16723178877106182 0.16723908109667068 0.16698228254063582 0.16775345868225477 0.1685863668758081 0.16982020023536795 0.1712451569064034 0.1725262923704457 0.1749913613228563 0.17503327963145413 0.17461123733833606 0.17426108833620968 0.1740228450238616 0.17352312119452157 0.17158460304482814 0.16877779732005993 0.1664709218181214 0.16472077729763035 0.16320945627504332 0.1622003425207724 0.16106326414845057 0.15984847347070305 0.15939850917576043 0.15931930002452938 0.15942161223746695 0.15975131238090692 0.16105632033455888 0.16172170940177596 0.1624957079777086 0.16345092495469765 0.16426990331525712 0.1647851065214692 0.1644855541032182 0.16413815524863934 0.16445464256804462 0.1653020969178201 0.16597203292470872 0.16599746668356835 0.1645171433896969 0.16109315428646168 0.1585605324437017 0.15746331088782067 0.1561788335494367 0.15526485828647346 0.15446395387846776 0.15125074067511413 0.14628503097423284 0.14225625748472245 0.13868776662141732 0.13536031452239256 0.13202995884508148 0.12958767661637366 0.1274815165656711 0.12622512499009364 0.12536463182153115 0.12375927654999086 0.12200807799331326 0.12101966368050239 0.12066391471879173 0.12024000533214467 0.11975610152501384 0.11971274339542777 0.11967766101833295 0.12006228680068376 0.12013565516767577 0.11997380098543269 0.11936153178583453 0.11950649207921463 0.11963134570187298 0.11911102834481727 0.11898075331417635 0.1190185181924923 0.11951969917656197 0.12037535471348239 0.12169953578677833 0.12406778799334073 0.12576272310050804 0.12695278997431675
0.07993925120592049 0.07996324984076203 0.08029644505011742 0.08083315916567117 0.08101533534087826 0.08177946539536025 0.08253236932115046 0.0839286580107133 0.08620952152377698 0.08951063537674729 0.09171625621147045 0.09448808897866082 0.09789817441400615 0.10159435118559104 0.10506337555647083 0.10877971632211307 0.11317296858949878 0.11803093662371056 0.12323251211868405 0.1280556802655455 0.13311281294633906 0.13692228027841277 0.1409733792115853 0.14545313302551144 0.14885117224134015 0.1523670569874102 0.15620397350366352 0.15796320081663234 0.15822326522661723 0.15889558229881937 0.16127334022257775 0.1647265367711746 0.16836358310786284 0.1722550365009636 0.17682331150604272 0.1830542867007093 0.18916609457281613 0.19253472881429662 0.1947538202678041 0.19825898115678325 0.20079440601336226 0.20299261097073326 0.20388580647388418 0.20237598554177216 0.20070614229164585 0.19989280134564577 0.19647191401594646 0.19256334225398708 0.18990450564715655 0.18781409736878948 0.18573551703945954 0.18340264531874198 0.18221714397806976 0.18123250123895027 0.18000107025296277 0.17917393559066322 0.1792759878640052 0.17722102838147677 0.17530263378318992 0.17331989774123782 0.17117524449765137 0.1700925495009455 0.17059022909281032 0.1710358885848963 0.17028030604389624 0.16887827968904007 0.16817154490830297 0.16847156603993424 0.16909608804583043 0.16912563641039868 0.1691906257006547 0.1691933429193354 0.16960216460313182 0.16946652791163522 0.16868262693188885 0.1688054424719643 0.16938229397840657 0.17018775780738463 0.17179464422910518 0.1727576425614838 0.17387998340806077 0.17442383683399648 0.17452230740995348 0.174820485652474 0.17418062081857574 0.17314252288877952 0.17194262761740708 0.17045370041127578 0.16877345301239274 0.1673613475365169 0.16553560069585221 0.16433218241702066 0.16272638378621754 0.16178924228850108 0.16105225508198814 0.16109280920697094 0.16088501475690056 0.1610797549843567 0.16177235743067334 0.16243226119863366 0.1639451553758029 0.16481682440822015 0.16510796664795357 0.16629198778785095 0.16468128002069624 0.16315433622660214 0.1627214666628019 0.16279216116464515 0.16356165202826825 0.1637655586875146 0.16304777173931828 0.16126641711632367 0.1591545129760166 0.157044428389943 0.1562733487893533 0.15526590861995124 0.15402749354781145 0.1503676672802398 0.14648866509898817 0.14345760581009442 0.13988849187094007 0.136369101644145 0.13331701480693556 0.13098604995758392 0.12982128957265887 0.12792479823034858 0.12642568648256655 0.12514373925012795 0.12395286298611065 0.12346057172873666 0.12358767795166063 0.12325111533724878 0.123485167055068 0.12352263025637553 0.12285984351067436 0.12291388599688127 0.12213135888571978 0.12179692609387129 0.12136717371772118 0.12139024854339506 0.12143178611468539 0.12141751754739967 0.12171584630699116 0.12240939232558642 0.12279000661362563 0.12316544307047382 0.12495243435086596 0.12650334455366374 0.12813098220897598 0.12965989942204534
0.08132270375855484 0.08094227659043515 0.08093784647366047 0.08152409644798492 0.08153139876773534 0.08237441527514697 0.08322483373472603 0.08487294065912782 0.08715467018504247 0.08967114068196622 0.09257117819825371 0.09579933456949133 0.0991069808685306 0.10264505246057543 0.10679387820056387 0.11127551377493533 0.11523076865943457 0.12030407009207085 0.12620943111061414 0.1316278285686878 0.13598077161473215 0.13996357681997076 0.14362038441841302 0.14831786145406683 0.15263202932664693 0.15657764338064709 0.16062095203466423 0.15974371637460902 0.16021257330296768 0.16105495288673186 0.16308009121638442 0.1665620480971993 0.17068510374606383 0.17513102666520097 0.17943686825343436 0.18501445468677566 0.18997290009460402 0.1940418441062833 0.1990766802785775 0.20529245570630558 0.2063493958093036 0.20576764184624186 0.20557075630920604 0.20614989409110254 0.20636953486919038 0.20381260031199044 0.20023549360183773 0.19600331194926132 0.1922610631204422 0.18963393513990656 0.18797731415266225 0.18702935907303203 0.1855806068578662 0.18537973924413295 0.18366193990765642 0.1817088275130516 0.18086804403951492 0.1789492869277389 0.17716950474417828 0.1755242139310358 0.1738087367973726 0.1725450496246342 0.1722431424283173 0.1721948637597795 0.17167605588297333 0.1701337485715122 0.16971266678581115 0.17025705767515403 0.17061275176208435 0.17057577248359795 0.17086376300925601 0.17185983975923005 0.1721423721662844 0.17110488373056532 0.16992806407500416 0.16967708052742295 0.1702886563157344 0.17126776536956761 0.17240828136029973 0.17332992514890952 0.17404005584882287 0.1748272457891517 0.17494332507004792 0.1746943879049306 0.17454470939959812 0.17437601778188214 0.17330269572721754 0.1718970287749581 0.1702546467305198 0.16897911800451312 0.16753721713769867 0.1664329632675132 0.16531017372962623 0.1640638612977431 0.16306886513080102 0.163147635735433 0.16238514849492608 0.16258648292526776 0.16418992042145483 0.16401649913171767 0.16374181325350134 0.1629694047323877 0.16294147184123076 0.16335217683507258 0.16181195132066833 0.16063173266944297 0.16035607655123052 0.16029122569055357 0.16174047103730685 0.1641932887286563 0.1619317687006926 0.16062437581425035 0.15897303558027914 0.15659968187592258 0.15487114460341586 0.15326391408705856 0.15143147516099617 0.14857013115815426 0.1464368253637305 0.14443662086390327 0.14043879483087535 0.1372282592727927 0.13493728659289925 0.13221776533247248 0.1307108676092734 0.1291837269951542 0.12765445632278466 0.12710530099533465 0.1265362645305553 0.1266002087796894 0.12710191271949467 0.12657337703307514 0.12707105297396995 0.12729534742437115 0.12626818000541312 0.1256355678325906 0.12451104721138206 0.12423233154388434 0.12390918289071468 0.12400583523659757 0.12456381507453584 0.12518934199345713 0.1250769118118808 0.12491941676348774 0.12527265073814936 0.12526958753529338 0.1266373996689091 0.12839263859870675 0.12998089619324982 0.13126696408336527
0.08254999293968138 0.08229414521928484 0.082084165044034 0.08196575975345764 0.08230140526130852 0.0829140549925139 0.08406903706522319 0.08582832804303867 0.08823095353334733 0.09044129258854099 0.09345457981779207 0.09696211625347374 0.10054970206033015 0.10474293186220346 0.10928843198137325 0.11298570949172941 0.11744097516451137 0.12281930338329552 0.1286668026687299 0.1339703655612512 0.13908642822375375 0.1437324757831269 0.14688655248082405 0.1522970762199093 0.1567783106807342 0.15981117008221202 0.16146848016388482 0.16116395594124014 0.1617970712491901 0.16357312014311795 0.16562398815265805 0.16875193242445108 0.17286014522543575 0.177856299365503 0.18256033526683083 0.18692642283436156 0.1905449674800578 0.1955005373892017 0.19972773205155428 0.20434409785988006 0.20883334356251104 0.2101593747135489 0.20906022663197577 0.20810637970301776 0.2061241988105658 0.20448677375389443 0.20155326754214975 0.19752963834471426 0.1941481495826994 0.19186672096818794 0.18998976713657548 0.18849777757773536 0.18779421841257637 0.18762740360272315 0.18640994620246648 0.1845196172395822 0.18326762138920077 0.18156273970574605 0.17954904153863244 0.17769057653267772 0.17539257392590013 0.17420510838584546 0.1739833738452353 0.1734826759732824 0.17239301510118327 0.17167481196123854 0.17106401448265715 0.17158854504898335 0.17221608107416286 0.1723941226078879 0.17241432174213434 0.17358087587207338 0.17339855393310355 0.17177829814048096 0.17056084104479882 0.17082479970908812 0.17166522523325428 0.17246640732581597 0.17385758503029367 0.174784190018952 0.1751645038817086 0.17546435585865394 0.17517470798319143 0.17519185967942913 0.17524644780756043 0.1750551191651388 0.1746759673956441 0.17412110016441326 0.17277064417561397 0.1712497969073747 0.1703107385375302 0.16852378273946705 0.16721992959266666 0.16608086131553101 0.1653060661634461 0.16382001215015135 0.16379821046179133 0.16358575974699513 0.1646416875697943 0.16411663522038666 0.16274798031310989 0.1619624277816247 0.1608139684819598 0.1608597656421074 0.15933452671622192 0.15862545798661995 0.1584292794313686 0.15799988045812569 0.15884808799237304 0.16038429631018725 0.16009949503460336 0.15946819744223464 0.15943132681237007 0.1565473190915452 0.15400330174937224 0.152199066592587 0.15035526392465892 0.14786567040848558 0.14635628096981967 0.14412622521549587 0.14041569713167823 0.13786706945367588 0.13586557934258597 0.1334054870127286 0.1316192464565238 0.1307398253526225 0.12999360822564016 0.12944167695349038 0.12908672834370494 0.12910158652131068 0.12937731478102665 0.12946752034686662 0.1289321205936331 0.12943320246746473 0.12872114257447217 0.12769536292592215 0.1272809785289601 0.12737961530362354 0.12732123606652793 0.12742862596992188 0.12823067544250197 0.12924132475391684 0.127952188418535 0.12706049088272015 0.12674465742396276 0.1271525955521302 0.12788735988283423 0.129282145615531 0.1316798477771989 0.13352453174597093
0.0832068474090513 0.08370684242490785 0.08330738135914832 0.08310760328244075 0.0833439249209084 0.08422130805124016 0.08557651543030906 0.08711582860845339 0.08916117062805476 0.09172799523358362 0.09484415742936395 0.09850633661517236 0.10274608131718388 0.10741935124427515 0.11195230462777847 0.11543323125472303 0.11987603534918397 0.12547726393086667 0.13108577307640717 0.13580214853783584 0.1410541618788056 0.14587961052692575 0.1499359751956624 0.1552826526564304 0.15831134660256008 0.160868605011374 0.16231960584148325 0.16276127488686234 0.16338543945324183 0.16535254311309 0.1684277107104901 0.1707710050602022 0.17456658985149429 0.18030236171985548 0.18395053144186865 0.18751335123968613 0.1922769123624666 0.19521449793716336 0.19950904310175366 0.20291236984119945 0.20661264304279164 0.20830687740536258 0.20817260203481422 0.20807138161630198 0.20724657501785698 0.204780000248813 0.2023308639600811 0.1995562081107517 0.19663246792873115 0.19468848815420622 0.19197243643132744 0.19050579508412332 0.19024321896587587 0.18935278188344135 0.1888670227613315 0.18772172052836988 0.18550124214800223 0.1836318842424763 0.18115033222445015 0.17915870619200638 0.1771068698920657 0.1761136114634658 0.17567502067213253 0.1743803952074205 0.17325735403218662 0.1731428139510766 0.1727680256142818 0.1730576629242869 0.17388785385658292 0.17479849659226493 0.17479008471102278 0.1760172955083608 0.17566107395138703 0.1726146298113097 0.17152077555771453 0.17133444446437393 0.1722267693069888 0.1736738239470933 0.1763481236564114 0.17741329765787658 0.17695787507409752 0.1767476764793605 0.17602920460021668 0.17616657348675155 0.1757615245924192 0.17621327807091433 0.17673164073571546 0.17659058598821753 0.17622752711293016 0.1738517714773941 0.17308323549219615 0.17112855572713023 0.16944007783281434 0.1669031783299846 0.1655119350305142 0.16447953116475453 0.16453246696897852 0.1633943891369888 0.1630795461293709 0.16221452913276055 0.16113350111946292 0.15991630597104906 0.1588904281993191 0.15857202533096218 0.15840409272920486 0.15718842731811375 0.15689102826444323 0.15643900747791648 0.15640424645712753 0.15694052347182855 0.157839047347822 0.15733354298723257 0.1567414640648161 0.15495951082276224 0.15318556613448825 0.15115231082377936 0.14953714640930785 0.1477843553538287 0.14652310586356926 0.14399642325450612 0.14069387151437424 0.13895019244375928 0.13667077494233532 0.1345524196135371 0.1336695814288024 0.1328823930927877 0.13161430683569605 0.1314731649937542 0.13091204244971713 0.131117373103555 0.1305334952597994 0.12978518121579707 0.12937715081530357 0.12963700637975015 0.12944312661415056 0.12913384342766004 0.12983238537337605 0.1312565887874032 0.13154247484789897 0.13080349924114718 0.13023992344467902 0.1302844851866962 0.12959627937879173 0.1286142451323949 0.12817674766087994 0.12848687871235479 0.129443450322135 0.1309151692568961 0.13368886334487196 0.13536949670624362
0.08383776716007955 0.08452979657439111 0.08457557603419213 0.08471722439653459 0.08506439056277096 0.0862112886037247 0.08754636322486264 0.08886546017474947 0.09076057982237945 0.09350441399696592 0.09688074435082147 0.10095405813763343 0.10540971056435124 0.11048876464545536 0.11469765768043615 0.11843165069625985 0.12266548111917805 0.12815807539252697 0.13361187603706964 0.13798455382630906 0.14290785734235018 0.14796486898948855 0.15276124914440112 0.1556809193636213 0.15868249018287447 0.16185840262139964 0.16503475150160465 0.16550267307544436 0.16550768127849 0.166975564508218 0.16915574974787007 0.17191224019859197 0.17531647262290065 0.17979516592904982 0.1841170997055427 0.18869202049594333 0.19247034626867932 0.19691799222675316 0.20052440381790607 0.20290749909525949 0.20575642212293563 0.20761494091093902 0.2077696516163587 0.20778907279209888 0.20756593361175393 0.20674381220921553 0.20382728328528013 0.20188226711397803 0.19861243673825763 0.19659423602432638 0.19468815997312472 0.19293629775462795 0.1920834010795683 0.1916018382301743 0.19105882259414575 0.18925999971952712 0.1884639151196848 0.1863215298456409 0.18355000104186994 0.18178650844763744 0.17908781015726485 0.1777552222491728 0.17725666450002597 0.17611347147689066 0.17557897890051904 0.1745660091770131 0.17463509659504442 0.17465436309589472 0.17523302917895897 0.1757569680753663 0.17649749739429724 0.17558075841240772 0.1750203345264702 0.1739624152367539 0.1725191870844466 0.17198155496539816 0.17295809529105613 0.17499629597892793 0.17783130238945494 0.17925632538587052 0.17928067853910792 0.17770133830343185 0.17742411698451008 0.17689012567671006 0.17682124701983257 0.1774136803919827 0.17764825518248717 0.17767280744203384 0.1779408714391666 0.1757526979292769 0.17476725095414858 0.17301019472951631 0.1723764613543307 0.16866856486560655 0.16653265906944278 0.16535314967321296 0.1642514572121117 0.16379678232710304 0.1630556742870256 0.1611792694375565 0.15996079588812598 0.15893705627547075 0.15759715474547994 0.15682075581160496 0.15671796849336256 0.15573177321162843 0.15543657256275933 0.1552173854878324 0.1545702496888918 0.15456534134916383 0.15448657217772524 0.1541586465039583 0.1531224034738777 0.1519536684878711 0.1503785623367408 0.14898776174784242 0.14770636884140287 0.14645600547013907 0.1454973449876295 0.14323386192466145 0.14101895937417425 0.13898010758235702 0.1373297137216889 0.13600553785445088 0.135686864433754 0.13451480042710606 0.13306175270621595 0.13259908398058143 0.1322942691462068 0.13179131310583986 0.13122897581934193 0.13037601534824128 0.13008129470761434 0.1303711769720393 0.13058023916246866 0.1308457351969841 0.13167018549718207 0.13338806642002485 0.1341469251987605 0.13389726272308777 0.13254068563765053 0.13135629850147018 0.1302881859089189 0.12945740378620302 0.12922135895051642 0.1296090902752119 0.13071475395939736 0.13270538636168167 0.13460282444639732 0.13675839778226206
0.08558570954542855 0.08580231868999327 0.0857807698895244 0.08616724521082662 0.08714396306550545 0.08799305200137683 0.08911093687657168 0.09068241654903247 0.09316837225404742 0.09594418790699408 0.09928347560401495 0.10340963469562058 0.10795545050259635 0.1130248880341787 0.11757051007270529 0.12149494982144422 0.1257105230338653 0.1306485273772313 0.13580001527577767 0.1409264302176871 0.14589638163782565 0.15129832102251178 0.15423950771621056 0.15692500880799004 0.16042382467033275 0.1632928178845286 0.16709006275474203 0.1680944079021707 0.16824132025101313 0.16928320360385485 0.17137734939510424 0.17405622636384602 0.17702767038732994 0.18123532332925452 0.1855825481098113 0.18965481231917994 0.19391597552873804 0.19945446005149 0.2024065336781767 0.2043949254292345 0.20697822598517324 0.2096384877177299 0.21102309470879627 0.2108568160295028 0.20793279717221294 0.2072888288049659 0.2054369372079834 0.20309473174642897 0.20108451985319015 0.19943600189526747 0.1973177456387303 0.19534630211051363 0.19444913885943707 0.19369597118802148 0.1921892974016199 0.19110274040274153 0.19100256348689057 0.18996036621363813 0.1866928024075102 0.18439183560298827 0.1819990502850417 0.17982982489697358 0.17864687402891324 0.1779688896227576 0.17680154539623671 0.1759849900935497 0.17558663006081082 0.17587973898530182 0.1765973463311005 0.17654627605091908 0.17611681372973986 0.1755433033813007 0.1746302980398897 0.17402779982790795 0.17357873114026423 0.1736318848062951 0.17427481470778658 0.17578233537132132 0.17809296082014567 0.18041519270410716 0.18038935220026697 0.17846883248511614 0.17779761922518744 0.17772077754257584 0.17782205626440267 0.1777798109480611 0.17848870150119553 0.17954678462995613 0.1779034077574843 0.1764152080874045 0.17553449555311507 0.17436692673475054 0.17300764149814377 0.1707003926366725 0.16841803302621342 0.16694190282290378 0.16580579101074663 0.16473615742612405 0.16323793848736828 0.16137926083855403 0.15992647377128202 0.15881338511999976 0.15702622669439278 0.1559362394805362 0.15532355306721587 0.15492042125846356 0.15446459499447304 0.15415772341188286 0.1540315378712891 0.153452107596006 0.1527885158928872 0.1519432782026906 0.1506935547746432 0.14968536961768675 0.147982563097288 0.14709776494189597 0.14590706182475918 0.14475581561576592 0.14389972094497558 0.14271030018081624 0.14164558694180532 0.13942015870595836 0.13791511822145594 0.1371090238787808 0.13605846558837656 0.13499050947402672 0.13407982874506397 0.1333116461914729 0.13288495889586774 0.13210979880329513 0.13165037164782775 0.1312288913471005 0.1311862688064106 0.13147385701434056 0.13219320028833384 0.1322724406090948 0.13272512828429278 0.1335246864115974 0.1344028576201688 0.1361526641205266 0.1341689689409898 0.1319667882124012 0.13045851203863187 0.1303066012115905 0.13021751924161287 0.13082620049105143 0.1331304376866205 0.13430027799340388 0.1360602518937463 0.138427762535965
0.08701091325172784 0.08730418472171775 0.08760190253022967 0.08819682886886765 0.08921824301438898 0.09004044090057514 0.09153822449001109 0.09303122234354427 0.09518239444732908 0.09824020117707943 0.10203093415236764 0.10647476913488942 0.11107849595108141 0.11552705477423622 0.1198428342829744 0.12470554812318209 0.12925265596857055 0.13350045886988623 0.13850920761285987 0.14462599312376273 0.14948387983492895 0.1525988684922048 0.15528291936306118 0.1584487641664281 0.1620690589061101 0.1654614893405487 0.16874186298852636 0.17044993499347838 0.1716671157161774 0.17276128138695254 0.17453122489279485 0.17697307089824824 0.1797642549130531 0.1837293318535044 0.18845786318268848 0.1920425958755901 0.19552062617277383 0.20066339772429193 0.20404987250106824 0.2063784074129934 0.20812487127610166 0.21116390563857573 0.21347573411085208 0.21301224713224112 0.2099343333574637 0.20916539529331396 0.20818388228261853 0.20485561061999763 0.20293047235532338 0.2015849957626661 0.19946496014971896 0.1981509516797819 0.19689639120072508 0.1957271083710445 0.19422758524008388 0.1927352134456073 0.19226882665543465 0.19206264228314474 0.18985351250128696 0.18721440529211053 0.18472827748860934 0.1828782905737516 0.18103643492076832 0.18003256331458647 0.17853288750948512 0.17726818062112676 0.17687578561988904 0.17714581111512032 0.17750984295743322 0.17672436953863832 0.1762464801813422 0.17564074167043583 0.1745385937345986 0.17403676255585224 0.1747640980792267 0.1756499745952924 0.17597775775960098 0.17679828066934325 0.1781547934891498 0.17962148993943625 0.17984696814581555 0.17906878248802896 0.17842018188612505 0.17879463535392068 0.17832940353317628 0.17771442819094754 0.1778374833913117 0.1787085366811568 0.17906105792241944 0.17806097107986027 0.17798223399697852 0.1759231618911983 0.17449492872052516 0.1733911047233826 0.17102338155784305 0.16913978313716102 0.1677995218319625 0.16576590696986065 0.16461868071701716 0.16247985541170465 0.16006628478132412 0.15839647688907138 0.15717544597959882 0.15613444774163032 0.15564380570176228 0.15503829302772304 0.15452411833581456 0.15395150392903642 0.1538732755180636 0.15375560397107077 0.15323150455463502 0.15150413112426603 0.14995633810824105 0.1485002012133523 0.1468049647685107 0.1453741130323375 0.1445995569795457 0.143819747660704 0.14281533074901281 0.14211230143806136 0.14151070165312857 0.13973199388930332 0.1385334447695328 0.13765154442753003 0.13712427506396382 0.13579122939051033 0.13458647420023148 0.134435104760853 0.13349619248073136 0.13261589538810126 0.13240935680439428 0.13276312853604422 0.13309038505348603 0.13325086010414514 0.13390710524118085 0.133596967606386 0.13341054150289347 0.13342450139160403 0.13424015813546675 0.13496214051683242 0.13365556360383551 0.13227524752651468 0.1311348919517395 0.13158741162542825 0.13171236404577286 0.13223789185672608 0.13423447879251202 0.1364090915427244 0.1380141314525141 0.1394734330215268
0.08887520233121045 0.08867413481296708 0.08934077070538195 0.0900910936847039 0.09126420069737737 0.09251929317465167 0.09407134883576479 0.09580783946984896 0.09798855942606133 0.1011070835380777 0.1049365723088939 0.10900862406937621 0.1133914334574904 0.1179044628950647 0.12269015575285915 0.1277037903682221 0.13253278694503842 0.13647521081413852 0.14123418575424215 0.14748334850215303 0.15260099554724588 0.1543761123899605 0.1564472272250466 0.15947456280122477 0.16349517025130172 0.16667470157614872 0.17066178121852382 0.1740653233411594 0.17497074129984558 0.1770883202109238 0.1792478199739283 0.18129543550584443 0.18375928722035534 0.186608889418588 0.18996722980030592 0.19379094488252746 0.19668770942784958 0.20181392387229982 0.20509855975215802 0.20740694083996045 0.2091519171576791 0.21189713456336168 0.2141170639565148 0.21404701030278403 0.2124480239419911 0.21128439356702844 0.21143282702167412 0.20781527156515373 0.20534553977471628 0.20316696686655267 0.2010301391002561 0.200209255054664 0.19955145105814193 0.1989842836848887 0.1964431519528028 0.19430588920635702 0.1938461408738813 0.19368896513208253 0.19265865935823479 0.19000432953648436 0.187321632658454 0.18610379229304885 0.18388506895771237 0.18193403235770106 0.1802910943407313 0.17889556505159523 0.17877523566407486 0.1787163169357805 0.17847855153621212 0.17763927831766224 0.17681923358245064 0.1756311604958414 0.17492618632180157 0.17476341408240328 0.1755067666160306 0.17603405169972824 0.1770291300427855 0.17825257031612832 0.17900138137409505 0.17992045667321505 0.18020015647507717 0.18038807374496713 0.17923007637353197 0.17858646730535954 0.1778052315777005 0.17721810739894125 0.17796215337384275 0.1789286381786841 0.18030774406615516 0.1793139779150763 0.17796287570857688 0.176491294353133 0.1745414436090752 0.17343716482059313 0.17197206346367258 0.17037904065617063 0.1695398870211421 0.1671119481820687 0.16553871878268012 0.16345707374461307 0.16127085262999888 0.15964838501195347 0.15800660220364074 0.15714022787992543 0.156739875202133 0.15637275320216343 0.15534027772129716 0.15477237795526538 0.15382004236364305 0.15361743385295967 0.15284572321533635 0.15178161967504955 0.14959980278821988 0.14741707373893556 0.14576354620546841 0.14432940401315536 0.14325978556051322 0.14271323685387338 0.1414550953040878 0.1410319141381323 0.14010945454847784 0.13934630834508482 0.13932557378772156 0.1387370822132501 0.13795787815217755 0.13627602125879626 0.13557966719718129 0.1356085889982743 0.13480472964757534 0.1337437081464539 0.13386526660781112 0.13455829557280333 0.13456740510853252 0.13496301183559728 0.1348131514289057 0.1349891428816282 0.13451962628894293 0.13403773400883745 0.13375048019531469 0.13369213055637044 0.1331604221224642 0.13267395451238767 0.13175479164497406 0.13232759386851278 0.1339798463363614 0.13410456539226545 0.13568698407780141 0.13763705901174575 0.13943485486773502 0.1403394017096541
0.09104213812429615 0.0909741623020037 0.09170154468877313 0.09278441213039879 0.09378978745192272 0.09544987988442352 0.09708237009390658 0.09913076413343676 0.10110186044424466 0.10401383281364238 0.10781889523546127 0.11170169890783896 0.11573549510810877 0.12026513830786462 0.12540287639517633 0.12994093798568251 0.13471493212977104 0.13904730817444644 0.14357631830634907 0.14928859263846894 0.15336755904223814 0.15617959597763967 0.15835832202086755 0.1611147392042642 0.1644814698065745 0.16763737446674667 0.17134416717845374 0.17531479804735647 0.1784936101469486 0.1820404898606877 0.18469916262152178 0.1859870460533982 0.18790600896341944 0.18976012820305568 0.19241509976575255 0.1950205549725103 0.19726583442653722 0.20159268607274913 0.2054318239179256 0.20753519239726403 0.21002160891005134 0.21224081000178896 0.21412481507054482 0.2156316354638627 0.21487950178093665 0.21384742195668108 0.2134369309634133 0.21090406759150515 0.20812401016733845 0.20564545434135165 0.20308202160483838 0.20187096176256425 0.20162474088141086 0.20092367806752556 0.19860320685481764 0.1966548683431991 0.19640599337774298 0.19614225400588295 0.19453744340950493 0.1930683926566984 0.18958633431109842 0.187677236503475 0.18586754186475657 0.18388375154270578 0.18192030824810138 0.18020868671225085 0.1800612185104826 0.18009524442934072 0.17986483763574765 0.17880366954189467 0.17791378012289677 0.17708828206834754 0.17590588990762582 0.17579022213453613 0.1767849248384385 0.17754122726028324 0.17788538917167276 0.178473575874139 0.17952362438376665 0.1813453738721279 0.18078381000556598 0.18033282409250245 0.17903724276257046 0.17793070167827763 0.17716520601027652 0.17669276320537725 0.17741013856379334 0.1794139902628827 0.18183772059869563 0.18051588887135603 0.17874499911930608 0.17634754558086058 0.1737527983849016 0.17264905947593728 0.17219340242179954 0.17092313618885252 0.1701993908966197 0.16842449622071282 0.16609650221745548 0.1641518358176812 0.1624150463691906 0.1608364249346616 0.15968389546696213 0.15864332644118573 0.1578664115412354 0.15628694011082148 0.1556219143483849 0.15521096558677427 0.15451528557626185 0.15369846379853344 0.15377065140964788 0.1519118773100114 0.14954160220414323 0.14701306196029754 0.1450056356550156 0.14357792879424802 0.14258224174917522 0.141464629643413 0.14036464722672767 0.13989802083862712 0.13918592876514335 0.13867116611052302 0.1390539839835509 0.1390337734279717 0.13829976203900116 0.13714941129603953 0.13687004853651663 0.13676269601670707 0.1358167849632299 0.1352682326888456 0.1355493442005182 0.13574937519782626 0.13561433496201925 0.13614819905158299 0.13571286262792942 0.13545290004916155 0.1354390590249263 0.13496754143987594 0.13352107700722338 0.13334842881080106 0.13376321069895253 0.1331771845454165 0.13235700532101993 0.13315037322097817 0.1343459868451478 0.13562838576200034 0.13652543271193004 0.13890471292074608 0.1404637660528303 0.14136495325939652
